ply
format ascii 1.0
element vertex 1290
property float x
property float y
property float z
property uchar red
property uchar green
property uchar blue
element face 0
property list uchar int vertex_indices
end_header
-49.3625 -20.8458 -0.0101244 0 200 0
-49.3623 -20.8507 -0.0104736 0 200 0
-49.362 -20.8557 -0.0108227 0 200 0
-49.3617 -20.8607 -0.0111718 0 200 0
-49.3615 -20.8657 -0.0115209 0 200 0
-49.3612 -20.8707 -0.01187 0 200 0
-49.3609 -20.8756 -0.0122191 0 200 0
-49.3607 -20.8806 -0.0125683 0 200 0
-49.3604 -20.8856 -0.0129174 0 200 0
-49.3601 -20.8906 -0.0132665 0 200 0
-49.3598 -20.8956 -0.0136156 0 200 0
-49.3596 -20.9005 -0.0139647 0 200 0
-49.3593 -20.9055 -0.0143139 0 200 0
-49.359 -20.9105 -0.014663 0 200 0
-49.3588 -20.9155 -0.0150121 0 200 0
-49.3585 -20.9205 -0.0153612 0 200 0
-49.3582 -20.9254 -0.0157103 0 200 0
-49.358 -20.9304 -0.0160595 0 200 0
-49.3577 -20.9354 -0.0164086 0 200 0
-49.3574 -20.9404 -0.0167577 0 200 0
-49.3571 -20.9454 -0.0171068 0 200 0
-49.3569 -20.9503 -0.0174559 0 200 0
-49.3566 -20.9553 -0.017805 0 200 0
-49.3563 -20.9603 -0.0181542 0 200 0
-49.3561 -20.9653 -0.0185033 0 200 0
-49.3558 -20.9703 -0.0188524 0 200 0
-49.3555 -20.9752 -0.0192015 0 200 0
-49.3553 -20.9802 -0.0195506 0 200 0
-49.355 -20.9852 -0.0198998 0 200 0
-49.3547 -20.9902 -0.0202489 0 200 0
-49.3544 -20.9952 -0.020598 0 200 0
-49.3542 -21.0001 -0.0209471 0 200 0
-49.3539 -21.0051 -0.0212962 0 200 0
-49.3536 -21.0101 -0.0216453 0 200 0
-49.3534 -21.0151 -0.0219945 0 200 0
-49.3531 -21.0201 -0.0223436 0 200 0
-49.3528 -21.0251 -0.0226927 0 200 0
-49.3526 -21.03 -0.0230418 0 200 0
-49.3523 -21.035 -0.0233909 0 200 0
-49.352 -21.04 -0.0237401 0 200 0
-49.3517 -21.045 -0.0240892 0 200 0
-49.3515 -21.05 -0.0244383 0 200 0
-49.3512 -21.0549 -0.0247874 0 200 0
-49.3509 -21.0599 -0.0251365 0 200 0
-49.3507 -21.0649 -0.0254857 0 200 0
-49.3504 -21.0699 -0.0258348 0 200 0
-49.3501 -21.0749 -0.0261839 0 200 0
-49.3499 -21.0798 -0.026533 0 200 0
-49.3496 -21.0848 -0.0268821 0 200 0
-49.3493 -21.0898 -0.0272312 0 200 0
-49.3491 -21.0948 -0.0275804 0 200 0
-49.3488 -21.0998 -0.0279295 0 200 0
-49.3485 -21.1047 -0.0282786 0 200 0
-49.3482 -21.1097 -0.0286277 0 200 0
-49.348 -21.1147 -0.0289768 0 200 0
-49.3477 -21.1197 -0.029326 0 200 0
-49.3474 -21.1247 -0.0296751 0 200 0
-49.3472 -21.1296 -0.0300242 0 200 0
-49.3469 -21.1346 -0.0303733 0 200 0
-49.3466 -21.1396 -0.0307224 0 200 0
-49.3464 -21.1446 -0.0310715 0 200 0
-49.3461 -21.1496 -0.0314207 0 200 0
-49.3458 -21.1545 -0.0317698 0 200 0
-49.3455 -21.1595 -0.0321189 0 200 0
-49.3453 -21.1645 -0.032468 0 200 0
-49.345 -21.1695 -0.0328171 0 200 0
-49.3447 -21.1745 -0.0331663 0 200 0
-49.3445 -21.1794 -0.0335154 0 200 0
-49.3442 -21.1844 -0.0338645 0 200 0
-49.3439 -21.1894 -0.0342136 0 200 0
-49.3437 -21.1944 -0.0345627 0 200 0
-50.1617 -21.0172 0 0 200 0
-50.1618 -21.0222 -0.000225832 0 200 0
-50.1619 -21.0272 -0.000451663 0 200 0
-50.1619 -21.0322 -0.000677495 0 200 0
-50.162 -21.0372 -0.000903327 0 200 0
-50.1621 -21.0422 -0.00112916 0 200 0
-50.1622 -21.0472 -0.00135499 0 200 0
-50.1623 -21.0522 -0.00158082 0 200 0
-50.1624 -21.0572 -0.00180665 0 200 0
-50.1625 -21.0622 -0.00203249 0 200 0
-50.1625 -21.0672 -0.00225832 0 200 0
-50.1626 -21.0721 -0.00248415 0 200 0
-50.1627 -21.0771 -0.00270998 0 200 0
-50.1628 -21.0821 -0.00293581 0 200 0
-50.1629 -21.0871 -0.00316164 0 200 0
-50.163 -21.0921 -0.00338748 0 200 0
-50.163 -21.0971 -0.00361331 0 200 0
-50.1631 -21.1021 -0.00383914 0 200 0
-50.1632 -21.1071 -0.00406497 0 200 0
-50.1633 -21.1121 -0.0042908 0 200 0
-50.1634 -21.1171 -0.00451663 0 200 0
-50.1635 -21.1221 -0.00474247 0 200 0
-50.1635 -21.1271 -0.0049683 0 200 0
-50.1636 -21.1321 -0.00519413 0 200 0
-50.1637 -21.1371 -0.00541996 0 200 0
-50.1638 -21.1421 -0.00564579 0 200 0
-50.1639 -21.1471 -0.00587162 0 200 0
-50.164 -21.1521 -0.00609746 0 200 0
-50.1641 -21.1571 -0.00632329 0 200 0
-50.1641 -21.162 -0.00654912 0 200 0
-50.1642 -21.167 -0.00677495 0 200 0
-50.1643 -21.172 -0.00700078 0 200 0
-50.1644 -21.177 -0.00722661 0 200 0
-50.1645 -21.182 -0.00745245 0 200 0
-50.1646 -21.187 -0.00767828 0 200 0
-50.1646 -21.192 -0.00790411 0 200 0
-50.1647 -21.197 -0.00812994 0 200 0
-50.1648 -21.202 -0.00835577 0 200 0
-50.1649 -21.207 -0.0085816 0 200 0
-50.165 -21.212 -0.00880744 0 200 0
-50.1651 -21.217 -0.00903327 0 200 0
-50.1651 -21.222 -0.0092591 0 200 0
-50.1652 -21.227 -0.00948493 0 200 0
-50.1653 -21.232 -0.00971076 0 200 0
-50.1654 -21.237 -0.00993659 0 200 0
-50.1655 -21.242 -0.0101624 0 200 0
-50.1656 -21.2469 -0.0103883 0 200 0
-50.1657 -21.2519 -0.0106141 0 200 0
-50.1657 -21.2569 -0.0108399 0 200 0
-50.1658 -21.2619 -0.0110658 0 200 0
-50.1659 -21.2669 -0.0112916 0 200 0
-50.166 -21.2719 -0.0115174 0 200 0
-50.1661 -21.2769 -0.0117432 0 200 0
-50.1662 -21.2819 -0.0119691 0 200 0
-50.1662 -21.2869 -0.0121949 0 200 0
-50.1663 -21.2919 -0.0124207 0 200 0
-50.1664 -21.2969 -0.0126466 0 200 0
-50.1665 -21.3019 -0.0128724 0 200 0
-50.1666 -21.3069 -0.0130982 0 200 0
-50.1667 -21.3119 -0.0133241 0 200 0
-50.1668 -21.3169 -0.0135499 0 200 0
-50.1668 -21.3219 -0.0137757 0 200 0
-50.1669 -21.3269 -0.0140016 0 200 0
-50.167 -21.3318 -0.0142274 0 200 0
-50.1671 -21.3368 -0.0144532 0 200 0
-50.1672 -21.3418 -0.0146791 0 200 0
-50.1673 -21.3468 -0.0149049 0 200 0
-50.1673 -21.3518 -0.0151307 0 200 0
-50.1674 -21.3568 -0.0153566 0 200 0
-50.1675 -21.3618 -0.0155824 0 200 0
-50.1676 -21.3668 -0.0158082 0 200 0
-50.1677 -21.3718 -0.016034 0 200 0
-50.1678 -21.3768 -0.0162599 0 200 0
-50.1679 -21.3818 -0.0164857 0 200 0
-50.1679 -21.3868 -0.0167115 0 200 0
-50.168 -21.3918 -0.0169374 0 200 0
-50.1681 -21.3968 -0.0171632 0 200 0
-50.1682 -21.4018 -0.017389 0 200 0
-50.1683 -21.4068 -0.0176149 0 200 0
-50.1684 -21.4118 -0.0178407 0 200 0
-50.1684 -21.4167 -0.0180665 0 200 0
-50.1685 -21.4217 -0.0182924 0 200 0
-50.1686 -21.4267 -0.0185182 0 200 0
-50.1687 -21.4317 -0.018744 0 200 0
-50.1688 -21.4367 -0.0189699 0 200 0
-50.1689 -21.4417 -0.0191957 0 200 0
-50.1689 -21.4467 -0.0194215 0 200 0
-50.169 -21.4517 -0.0196474 0 200 0
-50.1691 -21.4567 -0.0198732 0 200 0
-50.1692 -21.4617 -0.020099 0 200 0
-50.1693 -21.4667 -0.0203249 0 200 0
-50.1694 -21.4717 -0.0205507 0 200 0
-50.1695 -21.4767 -0.0207765 0 200 0
-50.1695 -21.4817 -0.0210023 0 200 0
-50.1696 -21.4867 -0.0212282 0 200 0
-50.1697 -21.4917 -0.021454 0 200 0
-50.1698 -21.4967 -0.0216798 0 200 0
-50.1699 -21.5016 -0.0219057 0 200 0
-50.17 -21.5066 -0.0221315 0 200 0
-50.17 -21.5116 -0.0223573 0 200 0
-51.0329 -21.5297 0 0 200 0
-51.0345 -21.5345 -0.000206331 0 200 0
-51.0361 -21.5392 -0.000412662 0 200 0
-51.0377 -21.5439 -0.000618994 0 200 0
-51.0394 -21.5487 -0.000825325 0 200 0
-51.041 -21.5534 -0.00103166 0 200 0
-51.0426 -21.5581 -0.00123799 0 200 0
-51.0442 -21.5628 -0.00144432 0 200 0
-51.0458 -21.5676 -0.00165065 0 200 0
-51.0474 -21.5723 -0.00185698 0 200 0
-51.049 -21.577 -0.00206331 0 200 0
-51.0506 -21.5818 -0.00226964 0 200 0
-51.0523 -21.5865 -0.00247597 0 200 0
-51.0539 -21.5912 -0.00268231 0 200 0
-51.0555 -21.5959 -0.00288864 0 200 0
-51.0571 -21.6007 -0.00309497 0 200 0
-51.0587 -21.6054 -0.0033013 0 200 0
-51.0603 -21.6101 -0.00350763 0 200 0
-51.0619 -21.6149 -0.00371396 0 200 0
-51.0635 -21.6196 -0.00392029 0 200 0
-51.0652 -21.6243 -0.00412662 0 200 0
-51.0668 -21.629 -0.00433295 0 200 0
-51.0684 -21.6338 -0.00453929 0 200 0
-51.07 -21.6385 -0.00474562 0 200 0
-51.0716 -21.6432 -0.00495195 0 200 0
-51.0732 -21.648 -0.00515828 0 200 0
-51.0748 -21.6527 -0.00536461 0 200 0
-51.0764 -21.6574 -0.00557094 0 200 0
-51.0781 -21.6621 -0.00577727 0 200 0
-51.0797 -21.6669 -0.0059836 0 200 0
-51.0813 -21.6716 -0.00618994 0 200 0
-51.0829 -21.6763 -0.00639627 0 200 0
-51.0845 -21.6811 -0.0066026 0 200 0
-51.0861 -21.6858 -0.00680893 0 200 0
-51.0877 -21.6905 -0.00701526 0 200 0
-51.0893 -21.6952 -0.00722159 0 200 0
-51.091 -21.7 -0.00742792 0 200 0
-51.0926 -21.7047 -0.00763425 0 200 0
-51.0942 -21.7094 -0.00784058 0 200 0
-51.0958 -21.7142 -0.00804692 0 200 0
-51.0974 -21.7189 -0.00825325 0 200 0
-51.099 -21.7236 -0.00845958 0 200 0
-51.1006 -21.7283 -0.00866591 0 200 0
-51.1022 -21.7331 -0.00887224 0 200 0
-51.1039 -21.7378 -0.00907857 0 200 0
-51.1055 -21.7425 -0.0092849 0 200 0
-51.1071 -21.7473 -0.00949123 0 200 0
-51.1087 -21.752 -0.00969756 0 200 0
-51.1103 -21.7567 -0.0099039 0 200 0
-51.1119 -21.7614 -0.0101102 0 200 0
-51.1135 -21.7662 -0.0103166 0 200 0
-51.1151 -21.7709 -0.0105229 0 200 0
-51.1168 -21.7756 -0.0107292 0 200 0
-51.1184 -21.7803 -0.0109356 0 200 0
-51.12 -21.7851 -0.0111419 0 200 0
-51.1216 -21.7898 -0.0113482 0 200 0
-51.1232 -21.7945 -0.0115545 0 200 0
-51.1248 -21.7993 -0.0117609 0 200 0
-51.1264 -21.804 -0.0119672 0 200 0
-51.128 -21.8087 -0.0121735 0 200 0
-51.1297 -21.8134 -0.0123799 0 200 0
-51.1313 -21.8182 -0.0125862 0 200 0
-51.1329 -21.8229 -0.0127925 0 200 0
-51.1345 -21.8276 -0.0129989 0 200 0
-51.1361 -21.8324 -0.0132052 0 200 0
-51.1377 -21.8371 -0.0134115 0 200 0
-51.1393 -21.8418 -0.0136179 0 200 0
-51.1409 -21.8465 -0.0138242 0 200 0
-51.1426 -21.8513 -0.0140305 0 200 0
-51.1442 -21.856 -0.0142369 0 200 0
-51.1458 -21.8607 -0.0144432 0 200 0
-51.1474 -21.8655 -0.0146495 0 200 0
-51.149 -21.8702 -0.0148558 0 200 0
-51.1506 -21.8749 -0.0150622 0 200 0
-51.1522 -21.8796 -0.0152685 0 200 0
-51.1538 -21.8844 -0.0154748 0 200 0
-51.1555 -21.8891 -0.0156812 0 200 0
-51.1571 -21.8938 -0.0158875 0 200 0
-51.1587 -21.8986 -0.0160938 0 200 0
-51.1603 -21.9033 -0.0163002 0 200 0
-51.1619 -21.908 -0.0165065 0 200 0
-51.1635 -21.9127 -0.0167128 0 200 0
-51.1651 -21.9175 -0.0169192 0 200 0
-51.1667 -21.9222 -0.0171255 0 200 0
-51.1684 -21.9269 -0.0173318 0 200 0
-51.17 -21.9317 -0.0175382 0 200 0
-51.1716 -21.9364 -0.0177445 0 200 0
-51.1732 -21.9411 -0.0179508 0 200 0
-51.1748 -21.9458 -0.0181571 0 200 0
-51.1764 -21.9506 -0.0183635 0 200 0
-51.178 -21.9553 -0.0185698 0 200 0
-51.1796 -21.96 -0.0187761 0 200 0
-51.1813 -21.9648 -0.0189825 0 200 0
-51.1829 -21.9695 -0.0191888 0 200 0
-51.1845 -21.9742 -0.0193951 0 200 0
-51.1861 -21.9789 -0.0196015 0 200 0
-51.1877 -21.9837 -0.0198078 0 200 0
-51.1893 -21.9884 -0.0200141 0 200 0
-51.1909 -21.9931 -0.0202205 0 200 0
-51.1925 -21.9979 -0.0204268 0 200 0
-52.097 -22.1749 0 0 200 0
-52.1002 -22.1788 -0.000297986 0 200 0
-52.1034 -22.1826 -0.000595971 0 200 0
-52.1066 -22.1865 -0.000893957 0 200 0
-52.1098 -22.1903 -0.00119194 0 200 0
-52.113 -22.1941 -0.00148993 0 200 0
-52.1161 -22.198 -0.00178791 0 200 0
-52.1193 -22.2018 -0.0020859 0 200 0
-52.1225 -22.2057 -0.00238389 0 200 0
-52.1257 -22.2095 -0.00268187 0 200 0
-52.1289 -22.2134 -0.00297986 0 200 0
-52.1321 -22.2172 -0.00327784 0 200 0
-52.1352 -22.2211 -0.00357583 0 200 0
-52.1384 -22.2249 -0.00387381 0 200 0
-52.1416 -22.2287 -0.0041718 0 200 0
-52.1448 -22.2326 -0.00446978 0 200 0
-52.148 -22.2364 -0.00476777 0 200 0
-52.1511 -22.2403 -0.00506576 0 200 0
-52.1543 -22.2441 -0.00536374 0 200 0
-52.1575 -22.248 -0.00566173 0 200 0
-52.1607 -22.2518 -0.00595971 0 200 0
-52.1639 -22.2557 -0.0062577 0 200 0
-52.1671 -22.2595 -0.00655568 0 200 0
-52.1702 -22.2634 -0.00685367 0 200 0
-52.1734 -22.2672 -0.00715166 0 200 0
-52.1766 -22.271 -0.00744964 0 200 0
-52.1798 -22.2749 -0.00774763 0 200 0
-52.183 -22.2787 -0.00804561 0 200 0
-52.1862 -22.2826 -0.0083436 0 200 0
-52.1893 -22.2864 -0.00864158 0 200 0
-52.1925 -22.2903 -0.00893957 0 200 0
-52.1957 -22.2941 -0.00923755 0 200 0
-52.1989 -22.298 -0.00953554 0 200 0
-52.2021 -22.3018 -0.00983353 0 200 0
-52.2052 -22.3056 -0.0101315 0 200 0
-52.2084 -22.3095 -0.0104295 0 200 0
-52.2116 -22.3133 -0.0107275 0 200 0
-52.2148 -22.3172 -0.0110255 0 200 0
-52.218 -22.321 -0.0113235 0 200 0
-52.2212 -22.3249 -0.0116214 0 200 0
-52.2243 -22.3287 -0.0119194 0 200 0
-52.2275 -22.3326 -0.0122174 0 200 0
-52.2307 -22.3364 -0.0125154 0 200 0
-52.2339 -22.3403 -0.0128134 0 200 0
-52.2371 -22.3441 -0.0131114 0 200 0
-52.2402 -22.3479 -0.0134094 0 200 0
-52.2434 -22.3518 -0.0137073 0 200 0
-52.2466 -22.3556 -0.0140053 0 200 0
-52.2498 -22.3595 -0.0143033 0 200 0
-52.253 -22.3633 -0.0146013 0 200 0
-52.2562 -22.3672 -0.0148993 0 200 0
-52.2593 -22.371 -0.0151973 0 200 0
-52.2625 -22.3749 -0.0154953 0 200 0
-52.2657 -22.3787 -0.0157932 0 200 0
-52.2689 -22.3826 -0.0160912 0 200 0
-52.2721 -22.3864 -0.0163892 0 200 0
-52.2753 -22.3902 -0.0166872 0 200 0
-52.2784 -22.3941 -0.0169852 0 200 0
-52.2816 -22.3979 -0.0172832 0 200 0
-52.2848 -22.4018 -0.0175812 0 200 0
-52.288 -22.4056 -0.0178791 0 200 0
-52.2912 -22.4095 -0.0181771 0 200 0
-52.2943 -22.4133 -0.0184751 0 200 0
-52.2975 -22.4172 -0.0187731 0 200 0
-52.3007 -22.421 -0.0190711 0 200 0
-52.3039 -22.4248 -0.0193691 0 200 0
-52.3071 -22.4287 -0.0196671 0 200 0
-52.3103 -22.4325 -0.019965 0 200 0
-52.3134 -22.4364 -0.020263 0 200 0
-52.3166 -22.4402 -0.020561 0 200 0
-52.3198 -22.4441 -0.020859 0 200 0
-52.323 -22.4479 -0.021157 0 200 0
-52.3262 -22.4518 -0.021455 0 200 0
-52.3293 -22.4556 -0.021753 0 200 0
-52.3325 -22.4595 -0.0220509 0 200 0
-52.3357 -22.4633 -0.0223489 0 200 0
-52.3389 -22.4671 -0.0226469 0 200 0
-52.3421 -22.471 -0.0229449 0 200 0
-52.3453 -22.4748 -0.0232429 0 200 0
-52.3484 -22.4787 -0.0235409 0 200 0
-52.3516 -22.4825 -0.0238389 0 200 0
-52.3548 -22.4864 -0.0241368 0 200 0
-52.358 -22.4902 -0.0244348 0 200 0
-52.3612 -22.4941 -0.0247328 0 200 0
-52.3644 -22.4979 -0.0250308 0 200 0
-52.3675 -22.5018 -0.0253288 0 200 0
-52.3707 -22.5056 -0.0256268 0 200 0
-52.3739 -22.5094 -0.0259248 0 200 0
-52.3771 -22.5133 -0.0262227 0 200 0
-52.3803 -22.5171 -0.0265207 0 200 0
-52.3834 -22.521 -0.0268187 0 200 0
-52.3866 -22.5248 -0.0271167 0 200 0
-52.3898 -22.5287 -0.0274147 0 200 0
-52.393 -22.5325 -0.0277127 0 200 0
-52.3962 -22.5364 -0.0280107 0 200 0
-52.3994 -22.5402 -0.0283086 0 200 0
-52.4025 -22.544 -0.0286066 0 200 0
-52.4057 -22.5479 -0.0289046 0 200 0
-52.4089 -22.5517 -0.0292026 0 200 0
-52.4121 -22.5556 -0.0295006 0 200 0
-53.4838 -22.9064 0 0 200 0
-53.4879 -22.9093 -0.000285212 0 200 0
-53.492 -22.9121 -0.000570423 0 200 0
-53.4961 -22.915 -0.000855635 0 200 0
-53.5001 -22.9179 -0.00114085 0 200 0
-53.5042 -22.9207 -0.00142606 0 200 0
-53.5083 -22.9236 -0.00171127 0 200 0
-53.5124 -22.9265 -0.00199648 0 200 0
-53.5165 -22.9293 -0.00228169 0 200 0
-53.5206 -22.9322 -0.0025669 0 200 0
-53.5247 -22.935 -0.00285212 0 200 0
-53.5288 -22.9379 -0.00313733 0 200 0
-53.5329 -22.9408 -0.00342254 0 200 0
-53.537 -22.9436 -0.00370775 0 200 0
-53.541 -22.9465 -0.00399296 0 200 0
-53.5451 -22.9493 -0.00427817 0 200 0
-53.5492 -22.9522 -0.00456339 0 200 0
-53.5533 -22.9551 -0.0048486 0 200 0
-53.5574 -22.9579 -0.00513381 0 200 0
-53.5615 -22.9608 -0.00541902 0 200 0
-53.5656 -22.9637 -0.00570423 0 200 0
-53.5697 -22.9665 -0.00598944 0 200 0
-53.5738 -22.9694 -0.00627465 0 200 0
-53.5779 -22.9722 -0.00655987 0 200 0
-53.5819 -22.9751 -0.00684508 0 200 0
-53.586 -22.978 -0.00713029 0 200 0
-53.5901 -22.9808 -0.0074155 0 200 0
-53.5942 -22.9837 -0.00770071 0 200 0
-53.5983 -22.9865 -0.00798592 0 200 0
-53.6024 -22.9894 -0.00827114 0 200 0
-53.6065 -22.9923 -0.00855635 0 200 0
-53.6106 -22.9951 -0.00884156 0 200 0
-53.6147 -22.998 -0.00912677 0 200 0
-53.6188 -23.0009 -0.00941198 0 200 0
-53.6229 -23.0037 -0.00969719 0 200 0
-53.6269 -23.0066 -0.0099824 0 200 0
-53.631 -23.0094 -0.0102676 0 200 0
-53.6351 -23.0123 -0.0105528 0 200 0
-53.6392 -23.0152 -0.010838 0 200 0
-53.6433 -23.018 -0.0111233 0 200 0
-53.6474 -23.0209 -0.0114085 0 200 0
-53.6515 -23.0238 -0.0116937 0 200 0
-53.6556 -23.0266 -0.0119789 0 200 0
-53.6597 -23.0295 -0.0122641 0 200 0
-53.6638 -23.0323 -0.0125493 0 200 0
-53.6678 -23.0352 -0.0128345 0 200 0
-53.6719 -23.0381 -0.0131197 0 200 0
-53.676 -23.0409 -0.0134049 0 200 0
-53.6801 -23.0438 -0.0136902 0 200 0
-53.6842 -23.0466 -0.0139754 0 200 0
-53.6883 -23.0495 -0.0142606 0 200 0
-53.6924 -23.0524 -0.0145458 0 200 0
-53.6965 -23.0552 -0.014831 0 200 0
-53.7006 -23.0581 -0.0151162 0 200 0
-53.7047 -23.0609 -0.0154014 0 200 0
-53.7087 -23.0638 -0.0156866 0 200 0
-53.7128 -23.0667 -0.0159718 0 200 0
-53.7169 -23.0695 -0.0162571 0 200 0
-53.721 -23.0724 -0.0165423 0 200 0
-53.7251 -23.0753 -0.0168275 0 200 0
-53.7292 -23.0781 -0.0171127 0 200 0
-53.7333 -23.081 -0.0173979 0 200 0
-53.7374 -23.0838 -0.0176831 0 200 0
-53.7415 -23.0867 -0.0179683 0 200 0
-53.7456 -23.0896 -0.0182535 0 200 0
-53.7496 -23.0924 -0.0185388 0 200 0
-53.7537 -23.0953 -0.018824 0 200 0
-53.7578 -23.0982 -0.0191092 0 200 0
-53.7619 -23.101 -0.0193944 0 200 0
-53.766 -23.1039 -0.0196796 0 200 0
-53.7701 -23.1067 -0.0199648 0 200 0
-53.7742 -23.1096 -0.02025 0 200 0
-53.7783 -23.1125 -0.0205352 0 200 0
-53.7824 -23.1153 -0.0208204 0 200 0
-53.7865 -23.1182 -0.0211057 0 200 0
-53.7906 -23.121 -0.0213909 0 200 0
-53.7946 -23.1239 -0.0216761 0 200 0
-53.7987 -23.1268 -0.0219613 0 200 0
-53.8028 -23.1296 -0.0222465 0 200 0
-53.8069 -23.1325 -0.0225317 0 200 0
-53.811 -23.1353 -0.0228169 0 200 0
-53.8151 -23.1382 -0.0231021 0 200 0
-53.8192 -23.1411 -0.0233873 0 200 0
-53.8233 -23.1439 -0.0236726 0 200 0
-53.8274 -23.1468 -0.0239578 0 200 0
-53.8315 -23.1497 -0.024243 0 200 0
-53.8355 -23.1525 -0.0245282 0 200 0
-53.8396 -23.1554 -0.0248134 0 200 0
-53.8437 -23.1582 -0.0250986 0 200 0
-53.8478 -23.1611 -0.0253838 0 200 0
-53.8519 -23.164 -0.025669 0 200 0
-53.856 -23.1668 -0.0259543 0 200 0
-53.8601 -23.1697 -0.0262395 0 200 0
-53.8642 -23.1726 -0.0265247 0 200 0
-53.8683 -23.1754 -0.0268099 0 200 0
-53.8724 -23.1783 -0.0270951 0 200 0
-53.8764 -23.1811 -0.0273803 0 200 0
-53.8805 -23.184 -0.0276655 0 200 0
-53.8846 -23.1869 -0.0279507 0 200 0
-53.8887 -23.1897 -0.0282359 0 200 0
-54.9896 -23.5666 0 0 200 0
-54.9934 -23.5698 -0.000300154 0 200 0
-54.9973 -23.5729 -0.000600308 0 200 0
-55.0011 -23.5761 -0.000900461 0 200 0
-55.005 -23.5793 -0.00120062 0 200 0
-55.0089 -23.5825 -0.00150077 0 200 0
-55.0127 -23.5856 -0.00180092 0 200 0
-55.0166 -23.5888 -0.00210108 0 200 0
-55.0204 -23.592 -0.00240123 0 200 0
-55.0243 -23.5951 -0.00270138 0 200 0
-55.0281 -23.5983 -0.00300154 0 200 0
-55.032 -23.6015 -0.00330169 0 200 0
-55.0358 -23.6046 -0.00360185 0 200 0
-55.0397 -23.6078 -0.003902 0 200 0
-55.0436 -23.611 -0.00420215 0 200 0
-55.0474 -23.6141 -0.00450231 0 200 0
-55.0513 -23.6173 -0.00480246 0 200 0
-55.0551 -23.6205 -0.00510261 0 200 0
-55.059 -23.6237 -0.00540277 0 200 0
-55.0628 -23.6268 -0.00570292 0 200 0
-55.0667 -23.63 -0.00600308 0 200 0
-55.0705 -23.6332 -0.00630323 0 200 0
-55.0744 -23.6363 -0.00660338 0 200 0
-55.0783 -23.6395 -0.00690354 0 200 0
-55.0821 -23.6427 -0.00720369 0 200 0
-55.086 -23.6458 -0.00750384 0 200 0
-55.0898 -23.649 -0.007804 0 200 0
-55.0937 -23.6522 -0.00810415 0 200 0
-55.0975 -23.6553 -0.00840431 0 200 0
-55.1014 -23.6585 -0.00870446 0 200 0
-55.1052 -23.6617 -0.00900461 0 200 0
-55.1091 -23.6649 -0.00930477 0 200 0
-55.113 -23.668 -0.00960492 0 200 0
-55.1168 -23.6712 -0.00990508 0 200 0
-55.1207 -23.6744 -0.0102052 0 200 0
-55.1245 -23.6775 -0.0105054 0 200 0
-55.1284 -23.6807 -0.0108055 0 200 0
-55.1322 -23.6839 -0.0111057 0 200 0
-55.1361 -23.687 -0.0114058 0 200 0
-55.1399 -23.6902 -0.011706 0 200 0
-55.1438 -23.6934 -0.0120062 0 200 0
-55.1477 -23.6966 -0.0123063 0 200 0
-55.1515 -23.6997 -0.0126065 0 200 0
-55.1554 -23.7029 -0.0129066 0 200 0
-55.1592 -23.7061 -0.0132068 0 200 0
-55.1631 -23.7092 -0.0135069 0 200 0
-55.1669 -23.7124 -0.0138071 0 200 0
-55.1708 -23.7156 -0.0141072 0 200 0
-55.1746 -23.7187 -0.0144074 0 200 0
-55.1785 -23.7219 -0.0147075 0 200 0
-55.1824 -23.7251 -0.0150077 0 200 0
-55.1862 -23.7282 -0.0153078 0 200 0
-55.1901 -23.7314 -0.015608 0 200 0
-55.1939 -23.7346 -0.0159082 0 200 0
-55.1978 -23.7378 -0.0162083 0 200 0
-55.2016 -23.7409 -0.0165085 0 200 0
-55.2055 -23.7441 -0.0168086 0 200 0
-55.2093 -23.7473 -0.0171088 0 200 0
-55.2132 -23.7504 -0.0174089 0 200 0
-55.2171 -23.7536 -0.0177091 0 200 0
-55.2209 -23.7568 -0.0180092 0 200 0
-55.2248 -23.7599 -0.0183094 0 200 0
-55.2286 -23.7631 -0.0186095 0 200 0
-55.2325 -23.7663 -0.0189097 0 200 0
-55.2363 -23.7694 -0.0192098 0 200 0
-55.2402 -23.7726 -0.01951 0 200 0
-55.244 -23.7758 -0.0198102 0 200 0
-55.2479 -23.779 -0.0201103 0 200 0
-55.2518 -23.7821 -0.0204105 0 200 0
-55.2556 -23.7853 -0.0207106 0 200 0
-55.2595 -23.7885 -0.0210108 0 200 0
-55.2633 -23.7916 -0.0213109 0 200 0
-55.2672 -23.7948 -0.0216111 0 200 0
-55.271 -23.798 -0.0219112 0 200 0
-55.2749 -23.8011 -0.0222114 0 200 0
-55.2787 -23.8043 -0.0225115 0 200 0
-55.2826 -23.8075 -0.0228117 0 200 0
-55.2865 -23.8106 -0.0231118 0 200 0
-55.2903 -23.8138 -0.023412 0 200 0
-55.2942 -23.817 -0.0237121 0 200 0
-55.298 -23.8202 -0.0240123 0 200 0
-55.3019 -23.8233 -0.0243125 0 200 0
-55.3057 -23.8265 -0.0246126 0 200 0
-55.3096 -23.8297 -0.0249128 0 200 0
-55.3134 -23.8328 -0.0252129 0 200 0
-55.3173 -23.836 -0.0255131 0 200 0
-55.3212 -23.8392 -0.0258132 0 200 0
-55.325 -23.8423 -0.0261134 0 200 0
-55.3289 -23.8455 -0.0264135 0 200 0
-55.3327 -23.8487 -0.0267137 0 200 0
-55.3366 -23.8518 -0.0270138 0 200 0
-55.3404 -23.855 -0.027314 0 200 0
-55.3443 -23.8582 -0.0276141 0 200 0
-55.3481 -23.8614 -0.0279143 0 200 0
-55.352 -23.8645 -0.0282145 0 200 0
-55.3559 -23.8677 -0.0285146 0 200 0
-55.3597 -23.8709 -0.0288148 0 200 0
-55.3636 -23.874 -0.0291149 0 200 0
-55.3674 -23.8772 -0.0294151 0 200 0
-55.3713 -23.8804 -0.0297152 0 200 0
-56.3903 -24.0365 0 0 200 0
-56.394 -24.0399 -0.000341342 0 200 0
-56.3977 -24.0433 -0.000682683 0 200 0
-56.4013 -24.0466 -0.00102402 0 200 0
-56.405 -24.05 -0.00136537 0 200 0
-56.4087 -24.0534 -0.00170671 0 200 0
-56.4123 -24.0568 -0.00204805 0 200 0
-56.416 -24.0602 -0.00238939 0 200 0
-56.4197 -24.0635 -0.00273073 0 200 0
-56.4234 -24.0669 -0.00307207 0 200 0
-56.427 -24.0703 -0.00341342 0 200 0
-56.4307 -24.0737 -0.00375476 0 200 0
-56.4344 -24.0771 -0.0040961 0 200 0
-56.438 -24.0804 -0.00443744 0 200 0
-56.4417 -24.0838 -0.00477878 0 200 0
-56.4454 -24.0872 -0.00512012 0 200 0
-56.449 -24.0906 -0.00546147 0 200 0
-56.4527 -24.094 -0.00580281 0 200 0
-56.4564 -24.0973 -0.00614415 0 200 0
-56.46 -24.1007 -0.00648549 0 200 0
-56.4637 -24.1041 -0.00682683 0 200 0
-56.4674 -24.1075 -0.00716817 0 200 0
-56.4711 -24.1109 -0.00750951 0 200 0
-56.4747 -24.1142 -0.00785086 0 200 0
-56.4784 -24.1176 -0.0081922 0 200 0
-56.4821 -24.121 -0.00853354 0 200 0
-56.4857 -24.1244 -0.00887488 0 200 0
-56.4894 -24.1278 -0.00921622 0 200 0
-56.4931 -24.1311 -0.00955756 0 200 0
-56.4967 -24.1345 -0.00989891 0 200 0
-56.5004 -24.1379 -0.0102402 0 200 0
-56.5041 -24.1413 -0.0105816 0 200 0
-56.5078 -24.1446 -0.0109229 0 200 0
-56.5114 -24.148 -0.0112643 0 200 0
-56.5151 -24.1514 -0.0116056 0 200 0
-56.5188 -24.1548 -0.011947 0 200 0
-56.5224 -24.1582 -0.0122883 0 200 0
-56.5261 -24.1615 -0.0126296 0 200 0
-56.5298 -24.1649 -0.012971 0 200 0
-56.5334 -24.1683 -0.0133123 0 200 0
-56.5371 -24.1717 -0.0136537 0 200 0
-56.5408 -24.1751 -0.013995 0 200 0
-56.5444 -24.1784 -0.0143363 0 200 0
-56.5481 -24.1818 -0.0146777 0 200 0
-56.5518 -24.1852 -0.015019 0 200 0
-56.5555 -24.1886 -0.0153604 0 200 0
-56.5591 -24.192 -0.0157017 0 200 0
-56.5628 -24.1953 -0.0160431 0 200 0
-56.5665 -24.1987 -0.0163844 0 200 0
-56.5701 -24.2021 -0.0167257 0 200 0
-56.5738 -24.2055 -0.0170671 0 200 0
-56.5775 -24.2089 -0.0174084 0 200 0
-56.5811 -24.2122 -0.0177498 0 200 0
-56.5848 -24.2156 -0.0180911 0 200 0
-56.5885 -24.219 -0.0184324 0 200 0
-56.5921 -24.2224 -0.0187738 0 200 0
-56.5958 -24.2257 -0.0191151 0 200 0
-56.5995 -24.2291 -0.0194565 0 200 0
-56.6032 -24.2325 -0.0197978 0 200 0
-56.6068 -24.2359 -0.0201392 0 200 0
-56.6105 -24.2393 -0.0204805 0 200 0
-56.6142 -24.2426 -0.0208218 0 200 0
-56.6178 -24.246 -0.0211632 0 200 0
-56.6215 -24.2494 -0.0215045 0 200 0
-56.6252 -24.2528 -0.0218459 0 200 0
-56.6288 -24.2562 -0.0221872 0 200 0
-56.6325 -24.2595 -0.0225285 0 200 0
-56.6362 -24.2629 -0.0228699 0 200 0
-56.6398 -24.2663 -0.0232112 0 200 0
-56.6435 -24.2697 -0.0235526 0 200 0
-56.6472 -24.2731 -0.0238939 0 200 0
-56.6509 -24.2764 -0.0242353 0 200 0
-56.6545 -24.2798 -0.0245766 0 200 0
-56.6582 -24.2832 -0.0249179 0 200 0
-56.6619 -24.2866 -0.0252593 0 200 0
-56.6655 -24.29 -0.0256006 0 200 0
-56.6692 -24.2933 -0.025942 0 200 0
-56.6729 -24.2967 -0.0262833 0 200 0
-56.6765 -24.3001 -0.0266246 0 200 0
-56.6802 -24.3035 -0.026966 0 200 0
-56.6839 -24.3069 -0.0273073 0 200 0
-56.6875 -24.3102 -0.0276487 0 200 0
-56.6912 -24.3136 -0.02799 0 200 0
-56.6949 -24.317 -0.0283314 0 200 0
-56.6986 -24.3204 -0.0286727 0 200 0
-56.7022 -24.3237 -0.029014 0 200 0
-56.7059 -24.3271 -0.0293554 0 200 0
-56.7096 -24.3305 -0.0296967 0 200 0
-56.7132 -24.3339 -0.0300381 0 200 0
-56.7169 -24.3373 -0.0303794 0 200 0
-56.7206 -24.3406 -0.0307207 0 200 0
-56.7242 -24.344 -0.0310621 0 200 0
-56.7279 -24.3474 -0.0314034 0 200 0
-56.7316 -24.3508 -0.0317448 0 200 0
-56.7352 -24.3542 -0.0320861 0 200 0
-56.7389 -24.3575 -0.0324274 0 200 0
-56.7426 -24.3609 -0.0327688 0 200 0
-56.7463 -24.3643 -0.0331101 0 200 0
-56.7499 -24.3677 -0.0334515 0 200 0
-56.7536 -24.3711 -0.0337928 0 200 0
-57.8375 -24.4057 0 0 200 0
-57.8415 -24.4088 -0.000257889 0 200 0
-57.8454 -24.4118 -0.000515778 0 200 0
-57.8494 -24.4149 -0.000773668 0 200 0
-57.8533 -24.4179 -0.00103156 0 200 0
-57.8573 -24.421 -0.00128945 0 200 0
-57.8612 -24.4241 -0.00154734 0 200 0
-57.8651 -24.4271 -0.00180522 0 200 0
-57.8691 -24.4302 -0.00206311 0 200 0
-57.873 -24.4333 -0.002321 0 200 0
-57.877 -24.4363 -0.00257889 0 200 0
-57.8809 -24.4394 -0.00283678 0 200 0
-57.8849 -24.4425 -0.00309467 0 200 0
-57.8888 -24.4455 -0.00335256 0 200 0
-57.8927 -24.4486 -0.00361045 0 200 0
-57.8967 -24.4516 -0.00386834 0 200 0
-57.9006 -24.4547 -0.00412623 0 200 0
-57.9046 -24.4578 -0.00438412 0 200 0
-57.9085 -24.4608 -0.00464201 0 200 0
-57.9125 -24.4639 -0.0048999 0 200 0
-57.9164 -24.467 -0.00515778 0 200 0
-57.9203 -24.47 -0.00541567 0 200 0
-57.9243 -24.4731 -0.00567356 0 200 0
-57.9282 -24.4762 -0.00593145 0 200 0
-57.9322 -24.4792 -0.00618934 0 200 0
-57.9361 -24.4823 -0.00644723 0 200 0
-57.9401 -24.4853 -0.00670512 0 200 0
-57.944 -24.4884 -0.00696301 0 200 0
-57.9479 -24.4915 -0.0072209 0 200 0
-57.9519 -24.4945 -0.00747879 0 200 0
-57.9558 -24.4976 -0.00773668 0 200 0
-57.9598 -24.5007 -0.00799457 0 200 0
-57.9637 -24.5037 -0.00825246 0 200 0
-57.9677 -24.5068 -0.00851034 0 200 0
-57.9716 -24.5099 -0.00876823 0 200 0
-57.9756 -24.5129 -0.00902612 0 200 0
-57.9795 -24.516 -0.00928401 0 200 0
-57.9834 -24.519 -0.0095419 0 200 0
-57.9874 -24.5221 -0.00979979 0 200 0
-57.9913 -24.5252 -0.0100577 0 200 0
-57.9953 -24.5282 -0.0103156 0 200 0
-57.9992 -24.5313 -0.0105735 0 200 0
-58.0032 -24.5344 -0.0108313 0 200 0
-58.0071 -24.5374 -0.0110892 0 200 0
-58.011 -24.5405 -0.0113471 0 200 0
-58.015 -24.5436 -0.011605 0 200 0
-58.0189 -24.5466 -0.0118629 0 200 0
-58.0229 -24.5497 -0.0121208 0 200 0
-58.0268 -24.5527 -0.0123787 0 200 0
-58.0308 -24.5558 -0.0126366 0 200 0
-58.0347 -24.5589 -0.0128945 0 200 0
-58.0386 -24.5619 -0.0131524 0 200 0
-58.0426 -24.565 -0.0134102 0 200 0
-58.0465 -24.5681 -0.0136681 0 200 0
-58.0505 -24.5711 -0.013926 0 200 0
-58.0544 -24.5742 -0.0141839 0 200 0
-58.0584 -24.5773 -0.0144418 0 200 0
-58.0623 -24.5803 -0.0146997 0 200 0
-58.0662 -24.5834 -0.0149576 0 200 0
-58.0702 -24.5864 -0.0152155 0 200 0
-58.0741 -24.5895 -0.0154734 0 200 0
-58.0781 -24.5926 -0.0157312 0 200 0
-58.082 -24.5956 -0.0159891 0 200 0
-58.086 -24.5987 -0.016247 0 200 0
-58.0899 -24.6018 -0.0165049 0 200 0
-58.0938 -24.6048 -0.0167628 0 200 0
-58.0978 -24.6079 -0.0170207 0 200 0
-58.1017 -24.611 -0.0172786 0 200 0
-58.1057 -24.614 -0.0175365 0 200 0
-58.1096 -24.6171 -0.0177944 0 200 0
-58.1136 -24.6201 -0.0180522 0 200 0
-58.1175 -24.6232 -0.0183101 0 200 0
-58.1214 -24.6263 -0.018568 0 200 0
-58.1254 -24.6293 -0.0188259 0 200 0
-58.1293 -24.6324 -0.0190838 0 200 0
-58.1333 -24.6355 -0.0193417 0 200 0
-58.1372 -24.6385 -0.0195996 0 200 0
-58.1412 -24.6416 -0.0198575 0 200 0
-58.1451 -24.6446 -0.0201154 0 200 0
-58.149 -24.6477 -0.0203732 0 200 0
-58.153 -24.6508 -0.0206311 0 200 0
-58.1569 -24.6538 -0.020889 0 200 0
-58.1609 -24.6569 -0.0211469 0 200 0
-58.1648 -24.66 -0.0214048 0 200 0
-58.1688 -24.663 -0.0216627 0 200 0
-58.1727 -24.6661 -0.0219206 0 200 0
-58.1767 -24.6692 -0.0221785 0 200 0
-58.1806 -24.6722 -0.0224364 0 200 0
-58.1845 -24.6753 -0.0226943 0 200 0
-58.1885 -24.6783 -0.0229521 0 200 0
-58.1924 -24.6814 -0.02321 0 200 0
-58.1964 -24.6845 -0.0234679 0 200 0
-58.2003 -24.6875 -0.0237258 0 200 0
-58.2043 -24.6906 -0.0239837 0 200 0
-58.2082 -24.6937 -0.0242416 0 200 0
-58.2121 -24.6967 -0.0244995 0 200 0
-58.2161 -24.6998 -0.0247574 0 200 0
-58.22 -24.7029 -0.0250153 0 200 0
-58.224 -24.7059 -0.0252731 0 200 0
-58.2279 -24.709 -0.025531 0 200 0
-59.3928 -24.6961 0 0 200 0
-59.3972 -24.6986 -1.70216e-06 0 200 0
-59.4015 -24.7011 -3.40431e-06 0 200 0
-59.4058 -24.7036 -5.10647e-06 0 200 0
-59.4101 -24.7061 -6.80862e-06 0 200 0
-59.4144 -24.7087 -8.51078e-06 0 200 0
-59.4187 -24.7112 -1.02129e-05 0 200 0
-59.4231 -24.7137 -1.19151e-05 0 200 0
-59.4274 -24.7162 -1.36172e-05 0 200 0
-59.4317 -24.7187 -1.53194e-05 0 200 0
-59.436 -24.7213 -1.70216e-05 0 200 0
-59.4403 -24.7238 -1.87237e-05 0 200 0
-59.4447 -24.7263 -2.04259e-05 0 200 0
-59.449 -24.7288 -2.2128e-05 0 200 0
-59.4533 -24.7313 -2.38302e-05 0 200 0
-59.4576 -24.7339 -2.55323e-05 0 200 0
-59.4619 -24.7364 -2.72345e-05 0 200 0
-59.4663 -24.7389 -2.89366e-05 0 200 0
-59.4706 -24.7414 -3.06388e-05 0 200 0
-59.4749 -24.7439 -3.2341e-05 0 200 0
-59.4792 -24.7465 -3.40431e-05 0 200 0
-59.4835 -24.749 -3.57453e-05 0 200 0
-59.4879 -24.7515 -3.74474e-05 0 200 0
-59.4922 -24.754 -3.91496e-05 0 200 0
-59.4965 -24.7565 -4.08517e-05 0 200 0
-59.5008 -24.7591 -4.25539e-05 0 200 0
-59.5051 -24.7616 -4.4256e-05 0 200 0
-59.5094 -24.7641 -4.59582e-05 0 200 0
-59.5138 -24.7666 -4.76604e-05 0 200 0
-59.5181 -24.7691 -4.93625e-05 0 200 0
-59.5224 -24.7716 -5.10647e-05 0 200 0
-59.5267 -24.7742 -5.27668e-05 0 200 0
-59.531 -24.7767 -5.4469e-05 0 200 0
-59.5354 -24.7792 -5.61711e-05 0 200 0
-59.5397 -24.7817 -5.78733e-05 0 200 0
-59.544 -24.7842 -5.95754e-05 0 200 0
-59.5483 -24.7868 -6.12776e-05 0 200 0
-59.5526 -24.7893 -6.29798e-05 0 200 0
-59.557 -24.7918 -6.46819e-05 0 200 0
-59.5613 -24.7943 -6.63841e-05 0 200 0
-59.5656 -24.7968 -6.80862e-05 0 200 0
-59.5699 -24.7994 -6.97884e-05 0 200 0
-59.5742 -24.8019 -7.14905e-05 0 200 0
-59.5785 -24.8044 -7.31927e-05 0 200 0
-59.5829 -24.8069 -7.48949e-05 0 200 0
-59.5872 -24.8094 -7.6597e-05 0 200 0
-59.5915 -24.812 -7.82992e-05 0 200 0
-59.5958 -24.8145 -8.00013e-05 0 200 0
-59.6001 -24.817 -8.17035e-05 0 200 0
-59.6045 -24.8195 -8.34056e-05 0 200 0
-59.6088 -24.822 -8.51078e-05 0 200 0
-59.6131 -24.8246 -8.68099e-05 0 200 0
-59.6174 -24.8271 -8.85121e-05 0 200 0
-59.6217 -24.8296 -9.02143e-05 0 200 0
-59.6261 -24.8321 -9.19164e-05 0 200 0
-59.6304 -24.8346 -9.36186e-05 0 200 0
-59.6347 -24.8371 -9.53207e-05 0 200 0
-59.639 -24.8397 -9.70229e-05 0 200 0
-59.6433 -24.8422 -9.8725e-05 0 200 0
-59.6477 -24.8447 -0.000100427 0 200 0
-59.652 -24.8472 -0.000102129 0 200 0
-59.6563 -24.8497 -0.000103832 0 200 0
-59.6606 -24.8523 -0.000105534 0 200 0
-59.6649 -24.8548 -0.000107236 0 200 0
-59.6693 -24.8573 -0.000108938 0 200 0
-59.6736 -24.8598 -0.00011064 0 200 0
-59.6779 -24.8623 -0.000112342 0 200 0
-59.6822 -24.8649 -0.000114044 0 200 0
-59.6865 -24.8674 -0.000115747 0 200 0
-59.6908 -24.8699 -0.000117449 0 200 0
-59.6952 -24.8724 -0.000119151 0 200 0
-59.6995 -24.8749 -0.000120853 0 200 0
-59.7038 -24.8775 -0.000122555 0 200 0
-59.7081 -24.88 -0.000124257 0 200 0
-59.7124 -24.8825 -0.00012596 0 200 0
-59.7168 -24.885 -0.000127662 0 200 0
-59.7211 -24.8875 -0.000129364 0 200 0
-59.7254 -24.89 -0.000131066 0 200 0
-59.7297 -24.8926 -0.000132768 0 200 0
-59.734 -24.8951 -0.00013447 0 200 0
-59.7384 -24.8976 -0.000136172 0 200 0
-59.7427 -24.9001 -0.000137875 0 200 0
-59.747 -24.9026 -0.000139577 0 200 0
-59.7513 -24.9052 -0.000141279 0 200 0
-59.7556 -24.9077 -0.000142981 0 200 0
-59.7599 -24.9102 -0.000144683 0 200 0
-59.7643 -24.9127 -0.000146385 0 200 0
-59.7686 -24.9152 -0.000148088 0 200 0
-59.7729 -24.9178 -0.00014979 0 200 0
-59.7772 -24.9203 -0.000151492 0 200 0
-59.7815 -24.9228 -0.000153194 0 200 0
-59.7859 -24.9253 -0.000154896 0 200 0
-59.7902 -24.9278 -0.000156598 0 200 0
-59.7945 -24.9304 -0.0001583 0 200 0
-59.7988 -24.9329 -0.000160003 0 200 0
-59.8031 -24.9354 -0.000161705 0 200 0
-59.8075 -24.9379 -0.000163407 0 200 0
-59.8118 -24.9404 -0.000165109 0 200 0
-59.8161 -24.943 -0.000166811 0 200 0
-59.8204 -24.9455 -0.000168513 0 200 0
-61.0022 -24.8894 0 0 200 0
-61.0063 -24.8922 -0.000301529 0 200 0
-61.0104 -24.895 -0.000603057 0 200 0
-61.0145 -24.8979 -0.000904586 0 200 0
-61.0186 -24.9007 -0.00120611 0 200 0
-61.0227 -24.9036 -0.00150764 0 200 0
-61.0268 -24.9064 -0.00180917 0 200 0
-61.0309 -24.9093 -0.0021107 0 200 0
-61.035 -24.9121 -0.00241223 0 200 0
-61.0391 -24.915 -0.00271376 0 200 0
-61.0432 -24.9178 -0.00301529 0 200 0
-61.0473 -24.9207 -0.00331681 0 200 0
-61.0514 -24.9235 -0.00361834 0 200 0
-61.0555 -24.9263 -0.00391987 0 200 0
-61.0596 -24.9292 -0.0042214 0 200 0
-61.0637 -24.932 -0.00452293 0 200 0
-61.0678 -24.9349 -0.00482446 0 200 0
-61.0719 -24.9377 -0.00512599 0 200 0
-61.076 -24.9406 -0.00542751 0 200 0
-61.0801 -24.9434 -0.00572904 0 200 0
-61.0842 -24.9463 -0.00603057 0 200 0
-61.0883 -24.9491 -0.0063321 0 200 0
-61.0924 -24.952 -0.00663363 0 200 0
-61.0965 -24.9548 -0.00693516 0 200 0
-61.1006 -24.9576 -0.00723669 0 200 0
-61.1047 -24.9605 -0.00753821 0 200 0
-61.1088 -24.9633 -0.00783974 0 200 0
-61.1129 -24.9662 -0.00814127 0 200 0
-61.1171 -24.969 -0.0084428 0 200 0
-61.1211 -24.9719 -0.00874433 0 200 0
-61.1252 -24.9747 -0.00904586 0 200 0
-61.1293 -24.9776 -0.00934738 0 200 0
-61.1334 -24.9804 -0.00964891 0 200 0
-61.1376 -24.9833 -0.00995044 0 200 0
-61.1417 -24.9861 -0.010252 0 200 0
-61.1457 -24.9889 -0.0105535 0 200 0
-61.1498 -24.9918 -0.010855 0 200 0
-61.1539 -24.9946 -0.0111566 0 200 0
-61.1581 -24.9975 -0.0114581 0 200 0
-61.1622 -25.0003 -0.0117596 0 200 0
-61.1663 -25.0032 -0.0120611 0 200 0
-61.1703 -25.006 -0.0123627 0 200 0
-61.1744 -25.0089 -0.0126642 0 200 0
-61.1786 -25.0117 -0.0129657 0 200 0
-61.1827 -25.0146 -0.0132673 0 200 0
-61.1868 -25.0174 -0.0135688 0 200 0
-61.1909 -25.0203 -0.0138703 0 200 0
-61.195 -25.0231 -0.0141718 0 200 0
-61.1991 -25.0259 -0.0144734 0 200 0
-61.2032 -25.0288 -0.0147749 0 200 0
-61.2073 -25.0316 -0.0150764 0 200 0
-61.2114 -25.0345 -0.015378 0 200 0
-61.2155 -25.0373 -0.0156795 0 200 0
-61.2196 -25.0402 -0.015981 0 200 0
-61.2237 -25.043 -0.0162825 0 200 0
-61.2278 -25.0459 -0.0165841 0 200 0
-61.2319 -25.0487 -0.0168856 0 200 0
-61.236 -25.0516 -0.0171871 0 200 0
-61.2401 -25.0544 -0.0174887 0 200 0
-61.2442 -25.0572 -0.0177902 0 200 0
-61.2483 -25.0601 -0.0180917 0 200 0
-61.2524 -25.0629 -0.0183932 0 200 0
-61.2565 -25.0658 -0.0186948 0 200 0
-61.2606 -25.0686 -0.0189963 0 200 0
-61.2647 -25.0715 -0.0192978 0 200 0
-61.2688 -25.0743 -0.0195994 0 200 0
-61.2729 -25.0772 -0.0199009 0 200 0
-61.277 -25.08 -0.0202024 0 200 0
-61.2811 -25.0829 -0.0205039 0 200 0
-61.2852 -25.0857 -0.0208055 0 200 0
-61.2893 -25.0885 -0.021107 0 200 0
-61.2934 -25.0914 -0.0214085 0 200 0
-61.2975 -25.0942 -0.0217101 0 200 0
-61.3016 -25.0971 -0.0220116 0 200 0
-61.3057 -25.0999 -0.0223131 0 200 0
-61.3098 -25.1028 -0.0226146 0 200 0
-61.3139 -25.1056 -0.0229162 0 200 0
-61.318 -25.1085 -0.0232177 0 200 0
-61.3221 -25.1113 -0.0235192 0 200 0
-61.3262 -25.1142 -0.0238208 0 200 0
-61.3303 -25.117 -0.0241223 0 200 0
-61.3344 -25.1199 -0.0244238 0 200 0
-61.3385 -25.1227 -0.0247253 0 200 0
-61.3426 -25.1255 -0.0250269 0 200 0
-61.3467 -25.1284 -0.0253284 0 200 0
-61.3508 -25.1312 -0.0256299 0 200 0
-61.3549 -25.1341 -0.0259315 0 200 0
-61.359 -25.1369 -0.026233 0 200 0
-61.3631 -25.1398 -0.0265345 0 200 0
-61.3672 -25.1426 -0.026836 0 200 0
-61.3713 -25.1455 -0.0271376 0 200 0
-61.3754 -25.1483 -0.0274391 0 200 0
-61.3795 -25.1512 -0.0277406 0 200 0
-61.3836 -25.154 -0.0280422 0 200 0
-61.3877 -25.1568 -0.0283437 0 200 0
-61.3918 -25.1597 -0.0286452 0 200 0
-61.3959 -25.1625 -0.0289467 0 200 0
-61.4 -25.1654 -0.0292483 0 200 0
-61.4041 -25.1682 -0.0295498 0 200 0
-61.4082 -25.1711 -0.0298513 0 200 0
-62.4724 -24.9304 0 0 200 0
-62.4761 -24.9338 -0.000538709 0 200 0
-62.4797 -24.9371 -0.00107742 0 200 0
-62.4834 -24.9405 -0.00161613 0 200 0
-62.487 -24.9439 -0.00215484 0 200 0
-62.4907 -24.9472 -0.00269355 0 200 0
-62.4944 -24.9506 -0.00323225 0 200 0
-62.498 -24.954 -0.00377096 0 200 0
-62.5017 -24.9573 -0.00430967 0 200 0
-62.5053 -24.9607 -0.00484838 0 200 0
-62.509 -24.964 -0.00538709 0 200 0
-62.5127 -24.9674 -0.0059258 0 200 0
-62.5163 -24.9708 -0.00646451 0 200 0
-62.52 -24.9741 -0.00700322 0 200 0
-62.5237 -24.9775 -0.00754193 0 200 0
-62.5273 -24.9809 -0.00808064 0 200 0
-62.531 -24.9842 -0.00861935 0 200 0
-62.5346 -24.9876 -0.00915806 0 200 0
-62.5383 -24.9909 -0.00969676 0 200 0
-62.542 -24.9943 -0.0102355 0 200 0
-62.5456 -24.9977 -0.0107742 0 200 0
-62.5493 -25.001 -0.0113129 0 200 0
-62.5529 -25.0044 -0.0118516 0 200 0
-62.5566 -25.0078 -0.0123903 0 200 0
-62.5603 -25.0111 -0.012929 0 200 0
-62.5639 -25.0145 -0.0134677 0 200 0
-62.5676 -25.0178 -0.0140064 0 200 0
-62.5712 -25.0212 -0.0145451 0 200 0
-62.5749 -25.0246 -0.0150839 0 200 0
-62.5786 -25.0279 -0.0156226 0 200 0
-62.5822 -25.0313 -0.0161613 0 200 0
-62.5859 -25.0347 -0.0167 0 200 0
-62.5896 -25.038 -0.0172387 0 200 0
-62.5932 -25.0414 -0.0177774 0 200 0
-62.5969 -25.0447 -0.0183161 0 200 0
-62.6005 -25.0481 -0.0188548 0 200 0
-62.6042 -25.0515 -0.0193935 0 200 0
-62.6079 -25.0548 -0.0199322 0 200 0
-62.6115 -25.0582 -0.0204709 0 200 0
-62.6152 -25.0616 -0.0210097 0 200 0
-62.6188 -25.0649 -0.0215484 0 200 0
-62.6225 -25.0683 -0.0220871 0 200 0
-62.6262 -25.0716 -0.0226258 0 200 0
-62.6298 -25.075 -0.0231645 0 200 0
-62.6335 -25.0784 -0.0237032 0 200 0
-62.6371 -25.0817 -0.0242419 0 200 0
-62.6408 -25.0851 -0.0247806 0 200 0
-62.6445 -25.0885 -0.0253193 0 200 0
-62.6481 -25.0918 -0.025858 0 200 0
-62.6518 -25.0952 -0.0263967 0 200 0
-62.6555 -25.0985 -0.0269355 0 200 0
-62.6591 -25.1019 -0.0274742 0 200 0
-62.6628 -25.1053 -0.0280129 0 200 0
-62.6664 -25.1086 -0.0285516 0 200 0
-62.6701 -25.112 -0.0290903 0 200 0
-62.6738 -25.1154 -0.029629 0 200 0
-62.6774 -25.1187 -0.0301677 0 200 0
-62.6811 -25.1221 -0.0307064 0 200 0
-62.6847 -25.1254 -0.0312451 0 200 0
-62.6884 -25.1288 -0.0317838 0 200 0
-62.6921 -25.1322 -0.0323225 0 200 0
-62.6957 -25.1355 -0.0328613 0 200 0
-62.6994 -25.1389 -0.0334 0 200 0
-62.703 -25.1423 -0.0339387 0 200 0
-62.7067 -25.1456 -0.0344774 0 200 0
-62.7104 -25.149 -0.0350161 0 200 0
-62.714 -25.1523 -0.0355548 0 200 0
-62.7177 -25.1557 -0.0360935 0 200 0
-62.7214 -25.1591 -0.0366322 0 200 0
-62.725 -25.1624 -0.0371709 0 200 0
-62.7287 -25.1658 -0.0377096 0 200 0
-62.7323 -25.1692 -0.0382483 0 200 0
-62.736 -25.1725 -0.0387871 0 200 0
-62.7397 -25.1759 -0.0393258 0 200 0
-62.7433 -25.1792 -0.0398645 0 200 0
-62.747 -25.1826 -0.0404032 0 200 0
-62.7506 -25.186 -0.0409419 0 200 0
-62.7543 -25.1893 -0.0414806 0 200 0
-62.758 -25.1927 -0.0420193 0 200 0
-62.7616 -25.1961 -0.042558 0 200 0
-62.7653 -25.1994 -0.0430967 0 200 0
-62.7689 -25.2028 -0.0436354 0 200 0
-62.7726 -25.2061 -0.0441741 0 200 0
-62.7763 -25.2095 -0.0447129 0 200 0
-62.7799 -25.2129 -0.0452516 0 200 0
-62.7836 -25.2162 -0.0457903 0 200 0
-62.7873 -25.2196 -0.046329 0 200 0
-62.7909 -25.223 -0.0468677 0 200 0
-62.7946 -25.2263 -0.0474064 0 200 0
-62.7982 -25.2297 -0.0479451 0 200 0
-62.8019 -25.233 -0.0484838 0 200 0
-62.8056 -25.2364 -0.0490225 0 200 0
-62.8092 -25.2398 -0.0495612 0 200 0
-62.8129 -25.2431 -0.0501 0 200 0
-62.8165 -25.2465 -0.0506387 0 200 0
-62.8202 -25.2499 -0.0511774 0 200 0
-62.8239 -25.2532 -0.0517161 0 200 0
-62.8275 -25.2566 -0.0522548 0 200 0
-62.8312 -25.2599 -0.0527935 0 200 0
-62.8348 -25.2633 -0.0533322 0 200 0
-64.0578 -24.9305 0 0 200 0
-64.062 -24.9333 -0.000426483 0 200 0
-64.0661 -24.9361 -0.000852966 0 200 0
-64.0702 -24.9389 -0.00127945 0 200 0
-64.0744 -24.9416 -0.00170593 0 200 0
-64.0785 -24.9444 -0.00213241 0 200 0
-64.0826 -24.9472 -0.0025589 0 200 0
-64.0868 -24.95 -0.00298538 0 200 0
-64.0909 -24.9528 -0.00341186 0 200 0
-64.095 -24.9555 -0.00383834 0 200 0
-64.0992 -24.9583 -0.00426483 0 200 0
-64.1033 -24.9611 -0.00469131 0 200 0
-64.1074 -24.9639 -0.00511779 0 200 0
-64.1116 -24.9666 -0.00554428 0 200 0
-64.1157 -24.9694 -0.00597076 0 200 0
-64.1198 -24.9722 -0.00639724 0 200 0
-64.124 -24.975 -0.00682372 0 200 0
-64.1281 -24.9778 -0.00725021 0 200 0
-64.1322 -24.9805 -0.00767669 0 200 0
-64.1364 -24.9833 -0.00810317 0 200 0
-64.1405 -24.9861 -0.00852966 0 200 0
-64.1446 -24.9889 -0.00895614 0 200 0
-64.1488 -24.9917 -0.00938262 0 200 0
-64.1529 -24.9944 -0.0098091 0 200 0
-64.1571 -24.9972 -0.0102356 0 200 0
-64.1612 -25 -0.0106621 0 200 0
-64.1653 -25.0028 -0.0110886 0 200 0
-64.1695 -25.0055 -0.011515 0 200 0
-64.1736 -25.0083 -0.0119415 0 200 0
-64.1777 -25.0111 -0.012368 0 200 0
-64.1819 -25.0139 -0.0127945 0 200 0
-64.186 -25.0167 -0.013221 0 200 0
-64.1901 -25.0194 -0.0136474 0 200 0
-64.1943 -25.0222 -0.0140739 0 200 0
-64.1984 -25.025 -0.0145004 0 200 0
-64.2025 -25.0278 -0.0149269 0 200 0
-64.2067 -25.0306 -0.0153534 0 200 0
-64.2108 -25.0333 -0.0157799 0 200 0
-64.2149 -25.0361 -0.0162063 0 200 0
-64.2191 -25.0389 -0.0166328 0 200 0
-64.2232 -25.0417 -0.0170593 0 200 0
-64.2273 -25.0444 -0.0174858 0 200 0
-64.2315 -25.0472 -0.0179123 0 200 0
-64.2356 -25.05 -0.0183388 0 200 0
-64.2397 -25.0528 -0.0187652 0 200 0
-64.2439 -25.0556 -0.0191917 0 200 0
-64.248 -25.0583 -0.0196182 0 200 0
-64.2522 -25.0611 -0.0200447 0 200 0
-64.2563 -25.0639 -0.0204712 0 200 0
-64.2604 -25.0667 -0.0208977 0 200 0
-64.2646 -25.0695 -0.0213241 0 200 0
-64.2687 -25.0722 -0.0217506 0 200 0
-64.2728 -25.075 -0.0221771 0 200 0
-64.277 -25.0778 -0.0226036 0 200 0
-64.2811 -25.0806 -0.0230301 0 200 0
-64.2852 -25.0833 -0.0234566 0 200 0
-64.2894 -25.0861 -0.023883 0 200 0
-64.2935 -25.0889 -0.0243095 0 200 0
-64.2976 -25.0917 -0.024736 0 200 0
-64.3018 -25.0945 -0.0251625 0 200 0
-64.3059 -25.0972 -0.025589 0 200 0
-64.31 -25.1 -0.0260154 0 200 0
-64.3142 -25.1028 -0.0264419 0 200 0
-64.3183 -25.1056 -0.0268684 0 200 0
-64.3224 -25.1084 -0.0272949 0 200 0
-64.3266 -25.1111 -0.0277214 0 200 0
-64.3307 -25.1139 -0.0281479 0 200 0
-64.3349 -25.1167 -0.0285743 0 200 0
-64.339 -25.1195 -0.0290008 0 200 0
-64.3431 -25.1222 -0.0294273 0 200 0
-64.3473 -25.125 -0.0298538 0 200 0
-64.3514 -25.1278 -0.0302803 0 200 0
-64.3555 -25.1306 -0.0307068 0 200 0
-64.3597 -25.1334 -0.0311332 0 200 0
-64.3638 -25.1361 -0.0315597 0 200 0
-64.3679 -25.1389 -0.0319862 0 200 0
-64.3721 -25.1417 -0.0324127 0 200 0
-64.3762 -25.1445 -0.0328392 0 200 0
-64.3803 -25.1473 -0.0332657 0 200 0
-64.3845 -25.15 -0.0336921 0 200 0
-64.3886 -25.1528 -0.0341186 0 200 0
-64.3927 -25.1556 -0.0345451 0 200 0
-64.3969 -25.1584 -0.0349716 0 200 0
-64.401 -25.1611 -0.0353981 0 200 0
-64.4051 -25.1639 -0.0358246 0 200 0
-64.4093 -25.1667 -0.036251 0 200 0
-64.4134 -25.1695 -0.0366775 0 200 0
-64.4175 -25.1723 -0.037104 0 200 0
-64.4217 -25.175 -0.0375305 0 200 0
-64.4258 -25.1778 -0.037957 0 200 0
-64.43 -25.1806 -0.0383835 0 200 0
-64.4341 -25.1834 -0.0388099 0 200 0
-64.4382 -25.1862 -0.0392364 0 200 0
-64.4424 -25.1889 -0.0396629 0 200 0
-64.4465 -25.1917 -0.0400894 0 200 0
-64.4506 -25.1945 -0.0405159 0 200 0
-64.4548 -25.1973 -0.0409423 0 200 0
-64.4589 -25.2 -0.0413688 0 200 0
-64.463 -25.2028 -0.0417953 0 200 0
-64.4672 -25.2056 -0.0422218 0 200 0
-65.7157 -24.9117 0 0 200 0
-65.7202 -24.9138 -0.000416022 0 200 0
-65.7248 -24.9158 -0.000832043 0 200 0
-65.7293 -24.9179 -0.00124806 0 200 0
-65.7339 -24.9199 -0.00166409 0 200 0
-65.7384 -24.922 -0.00208011 0 200 0
-65.7429 -24.9241 -0.00249613 0 200 0
-65.7475 -24.9261 -0.00291215 0 200 0
-65.752 -24.9282 -0.00332817 0 200 0
-65.7566 -24.9302 -0.00374419 0 200 0
-65.7611 -24.9323 -0.00416022 0 200 0
-65.7656 -24.9343 -0.00457624 0 200 0
-65.7702 -24.9364 -0.00499226 0 200 0
-65.7747 -24.9384 -0.00540828 0 200 0
-65.7793 -24.9405 -0.0058243 0 200 0
-65.7838 -24.9425 -0.00624032 0 200 0
-65.7883 -24.9446 -0.00665635 0 200 0
-65.7929 -24.9466 -0.00707237 0 200 0
-65.7974 -24.9487 -0.00748839 0 200 0
-65.802 -24.9507 -0.00790441 0 200 0
-65.8065 -24.9528 -0.00832043 0 200 0
-65.811 -24.9549 -0.00873645 0 200 0
-65.8156 -24.9569 -0.00915247 0 200 0
-65.8201 -24.959 -0.0095685 0 200 0
-65.8247 -24.961 -0.00998452 0 200 0
-65.8292 -24.9631 -0.0104005 0 200 0
-65.8337 -24.9651 -0.0108166 0 200 0
-65.8383 -24.9672 -0.0112326 0 200 0
-65.8428 -24.9692 -0.0116486 0 200 0
-65.8474 -24.9713 -0.0120646 0 200 0
-65.8519 -24.9733 -0.0124806 0 200 0
-65.8564 -24.9754 -0.0128967 0 200 0
-65.861 -24.9774 -0.0133127 0 200 0
-65.8655 -24.9795 -0.0137287 0 200 0
-65.87 -24.9815 -0.0141447 0 200 0
-65.8746 -24.9836 -0.0145608 0 200 0
-65.8791 -24.9857 -0.0149768 0 200 0
-65.8837 -24.9877 -0.0153928 0 200 0
-65.8882 -24.9898 -0.0158088 0 200 0
-65.8928 -24.9918 -0.0162248 0 200 0
-65.8973 -24.9939 -0.0166409 0 200 0
-65.9018 -24.9959 -0.0170569 0 200 0
-65.9064 -24.998 -0.0174729 0 200 0
-65.9109 -25 -0.0178889 0 200 0
-65.9155 -25.0021 -0.0183049 0 200 0
-65.92 -25.0041 -0.018721 0 200 0
-65.9245 -25.0062 -0.019137 0 200 0
-65.9291 -25.0082 -0.019553 0 200 0
-65.9336 -25.0103 -0.019969 0 200 0
-65.9381 -25.0123 -0.0203851 0 200 0
-65.9427 -25.0144 -0.0208011 0 200 0
-65.9472 -25.0165 -0.0212171 0 200 0
-65.9518 -25.0185 -0.0216331 0 200 0
-65.9563 -25.0206 -0.0220491 0 200 0
-65.9609 -25.0226 -0.0224652 0 200 0
-65.9654 -25.0247 -0.0228812 0 200 0
-65.9699 -25.0267 -0.0232972 0 200 0
-65.9745 -25.0288 -0.0237132 0 200 0
-65.979 -25.0308 -0.0241293 0 200 0
-65.9836 -25.0329 -0.0245453 0 200 0
-65.9881 -25.0349 -0.0249613 0 200 0
-65.9926 -25.037 -0.0253773 0 200 0
-65.9972 -25.039 -0.0257933 0 200 0
-66.0017 -25.0411 -0.0262094 0 200 0
-66.0062 -25.0431 -0.0266254 0 200 0
-66.0108 -25.0452 -0.0270414 0 200 0
-66.0153 -25.0473 -0.0274574 0 200 0
-66.0199 -25.0493 -0.0278734 0 200 0
-66.0244 -25.0514 -0.0282895 0 200 0
-66.0289 -25.0534 -0.0287055 0 200 0
-66.0335 -25.0555 -0.0291215 0 200 0
-66.038 -25.0575 -0.0295375 0 200 0
-66.0426 -25.0596 -0.0299536 0 200 0
-66.0471 -25.0616 -0.0303696 0 200 0
-66.0517 -25.0637 -0.0307856 0 200 0
-66.0562 -25.0657 -0.0312016 0 200 0
-66.0607 -25.0678 -0.0316176 0 200 0
-66.0653 -25.0698 -0.0320337 0 200 0
-66.0698 -25.0719 -0.0324497 0 200 0
-66.0743 -25.0739 -0.0328657 0 200 0
-66.0789 -25.076 -0.0332817 0 200 0
-66.0834 -25.0781 -0.0336978 0 200 0
-66.088 -25.0801 -0.0341138 0 200 0
-66.0925 -25.0822 -0.0345298 0 200 0
-66.097 -25.0842 -0.0349458 0 200 0
-66.1016 -25.0863 -0.0353618 0 200 0
-66.1061 -25.0883 -0.0357779 0 200 0
-66.1107 -25.0904 -0.0361939 0 200 0
-66.1152 -25.0924 -0.0366099 0 200 0
-66.1198 -25.0945 -0.0370259 0 200 0
-66.1243 -25.0965 -0.0374419 0 200 0
-66.1288 -25.0986 -0.037858 0 200 0
-66.1334 -25.1006 -0.038274 0 200 0
-66.1379 -25.1027 -0.03869 0 200 0
-66.1424 -25.1047 -0.039106 0 200 0
-66.147 -25.1068 -0.0395221 0 200 0
-66.1515 -25.1089 -0.0399381 0 200 0
-66.1561 -25.1109 -0.0403541 0 200 0
-66.1606 -25.113 -0.0407701 0 200 0
-66.1651 -25.115 -0.0411861 0 200 0
-67.468 -24.8584 0 0 200 0
-67.4729 -24.8593 -0.000343847 0 200 0
-67.4778 -24.8603 -0.000687693 0 200 0
-67.4827 -24.8612 -0.00103154 0 200 0
-67.4876 -24.8621 -0.00137539 0 200 0
-67.4925 -24.863 -0.00171923 0 200 0
-67.4974 -24.8639 -0.00206308 0 200 0
-67.5023 -24.8649 -0.00240693 0 200 0
-67.5072 -24.8658 -0.00275077 0 200 0
-67.5121 -24.8667 -0.00309462 0 200 0
-67.517 -24.8676 -0.00343847 0 200 0
-67.5219 -24.8685 -0.00378231 0 200 0
-67.5268 -24.8695 -0.00412616 0 200 0
-67.5317 -24.8704 -0.00447001 0 200 0
-67.5366 -24.8713 -0.00481385 0 200 0
-67.5415 -24.8722 -0.0051577 0 200 0
-67.5464 -24.8731 -0.00550155 0 200 0
-67.5513 -24.8741 -0.00584539 0 200 0
-67.5562 -24.875 -0.00618924 0 200 0
