ply
format ascii 1.0
element vertex 1338
property float x
property float y
property float z
property uchar red
property uchar green
property uchar blue
element face 0
property list uchar int vertex_indices
end_header
-17.6598 -12.3072 0.0381816 0 200 0
-17.6629 -12.311 0.038902 0 200 0
-17.666 -12.3149 0.0396224 0 200 0
-17.6691 -12.3187 0.0403428 0 200 0
-17.6722 -12.3226 0.0410632 0 200 0
-17.6753 -12.3265 0.0417836 0 200 0
-17.6784 -12.3303 0.042504 0 200 0
-17.6815 -12.3342 0.0432245 0 200 0
-17.6846 -12.338 0.0439449 0 200 0
-17.6877 -12.3419 0.0446653 0 200 0
-17.6908 -12.3457 0.0453857 0 200 0
-17.6939 -12.3496 0.0461061 0 200 0
-17.697 -12.3534 0.0468265 0 200 0
-17.7001 -12.3573 0.0475469 0 200 0
-17.7032 -12.3611 0.0482673 0 200 0
-17.7063 -12.365 0.0489877 0 200 0
-17.7094 -12.3688 0.0497081 0 200 0
-17.7125 -12.3727 0.0504285 0 200 0
-17.7156 -12.3765 0.0511489 0 200 0
-17.7187 -12.3804 0.0518693 0 200 0
-17.7218 -12.3843 0.0525897 0 200 0
-17.7249 -12.3881 0.0533102 0 200 0
-17.728 -12.392 0.0540306 0 200 0
-17.7311 -12.3958 0.054751 0 200 0
-17.7343 -12.3997 0.0554714 0 200 0
-17.7374 -12.4035 0.0561918 0 200 0
-17.7405 -12.4074 0.0569122 0 200 0
-17.7436 -12.4112 0.0576326 0 200 0
-17.7467 -12.4151 0.058353 0 200 0
-17.7498 -12.4189 0.0590734 0 200 0
-17.7529 -12.4228 0.0597938 0 200 0
-17.756 -12.4266 0.0605142 0 200 0
-17.7591 -12.4305 0.0612346 0 200 0
-17.7622 -12.4343 0.061955 0 200 0
-17.7653 -12.4382 0.0626755 0 200 0
-17.7684 -12.4421 0.0633959 0 200 0
-17.7715 -12.4459 0.0641163 0 200 0
-17.7746 -12.4498 0.0648367 0 200 0
-17.7777 -12.4536 0.0655571 0 200 0
-17.7808 -12.4575 0.0662775 0 200 0
-17.7839 -12.4613 0.0669979 0 200 0
-17.787 -12.4652 0.0677183 0 200 0
-17.7901 -12.469 0.0684387 0 200 0
-17.7932 -12.4729 0.0691591 0 200 0
-17.7963 -12.4767 0.0698795 0 200 0
-17.7994 -12.4806 0.0705999 0 200 0
-17.8025 -12.4844 0.0713203 0 200 0
-19.2025 -12.7342 0 0 200 0
-19.205 -12.7384 0.000791924 0 200 0
-19.2074 -12.7427 0.00158385 0 200 0
-19.2099 -12.747 0.00237577 0 200 0
-19.2124 -12.7513 0.0031677 0 200 0
-19.2148 -12.7555 0.00395962 0 200 0
-19.2173 -12.7598 0.00475154 0 200 0
-19.2198 -12.7641 0.00554347 0 200 0
-19.2222 -12.7684 0.00633539 0 200 0
-19.2247 -12.7726 0.00712732 0 200 0
-19.2272 -12.7769 0.00791924 0 200 0
-19.2296 -12.7812 0.00871116 0 200 0
-19.2321 -12.7855 0.00950309 0 200 0
-19.2346 -12.7897 0.010295 0 200 0
-19.2371 -12.794 0.0110869 0 200 0
-19.2395 -12.7983 0.0118789 0 200 0
-19.242 -12.8026 0.0126708 0 200 0
-19.2445 -12.8068 0.0134627 0 200 0
-19.2469 -12.8111 0.0142546 0 200 0
-19.2494 -12.8154 0.0150466 0 200 0
-19.2519 -12.8197 0.0158385 0 200 0
-19.2543 -12.8239 0.0166304 0 200 0
-19.2568 -12.8282 0.0174223 0 200 0
-19.2593 -12.8325 0.0182143 0 200 0
-19.2617 -12.8368 0.0190062 0 200 0
-19.2642 -12.841 0.0197981 0 200 0
-19.2667 -12.8453 0.02059 0 200 0
-19.2692 -12.8496 0.0213819 0 200 0
-19.2716 -12.8539 0.0221739 0 200 0
-19.2741 -12.8581 0.0229658 0 200 0
-19.2766 -12.8624 0.0237577 0 200 0
-19.279 -12.8667 0.0245496 0 200 0
-19.2815 -12.871 0.0253416 0 200 0
-19.284 -12.8752 0.0261335 0 200 0
-19.2864 -12.8795 0.0269254 0 200 0
-19.2889 -12.8838 0.0277173 0 200 0
-19.2914 -12.8881 0.0285093 0 200 0
-19.2938 -12.8923 0.0293012 0 200 0
-19.2963 -12.8966 0.0300931 0 200 0
-19.2988 -12.9009 0.030885 0 200 0
-19.3013 -12.9052 0.031677 0 200 0
-19.3037 -12.9094 0.0324689 0 200 0
-19.3062 -12.9137 0.0332608 0 200 0
-19.3087 -12.918 0.0340527 0 200 0
-19.3111 -12.9223 0.0348447 0 200 0
-19.3136 -12.9265 0.0356366 0 200 0
-19.3161 -12.9308 0.0364285 0 200 0
-19.3185 -12.9351 0.0372204 0 200 0
-19.321 -12.9394 0.0380124 0 200 0
-19.3235 -12.9436 0.0388043 0 200 0
-19.3259 -12.9479 0.0395962 0 200 0
-19.3284 -12.9522 0.0403881 0 200 0
-19.3309 -12.9565 0.04118 0 200 0
-19.3334 -12.9607 0.041972 0 200 0
-19.3358 -12.965 0.0427639 0 200 0
-19.3383 -12.9693 0.0435558 0 200 0
-19.3408 -12.9736 0.0443477 0 200 0
-19.3432 -12.9778 0.0451397 0 200 0
-19.3457 -12.9821 0.0459316 0 200 0
-19.3482 -12.9864 0.0467235 0 200 0
-19.3506 -12.9907 0.0475154 0 200 0
-19.3531 -12.9949 0.0483074 0 200 0
-19.3556 -12.9992 0.0490993 0 200 0
-19.358 -13.0035 0.0498912 0 200 0
-19.3605 -13.0078 0.0506831 0 200 0
-19.363 -13.012 0.0514751 0 200 0
-19.3655 -13.0163 0.052267 0 200 0
-19.3679 -13.0206 0.0530589 0 200 0
-19.3704 -13.0249 0.0538508 0 200 0
-19.3729 -13.0291 0.0546428 0 200 0
-19.3753 -13.0334 0.0554347 0 200 0
-19.3778 -13.0377 0.0562266 0 200 0
-19.3803 -13.042 0.0570185 0 200 0
-19.3827 -13.0462 0.0578105 0 200 0
-19.3852 -13.0505 0.0586024 0 200 0
-19.3877 -13.0548 0.0593943 0 200 0
-19.3902 -13.0591 0.0601862 0 200 0
-19.3926 -13.0633 0.0609781 0 200 0
-19.3951 -13.0676 0.0617701 0 200 0
-19.3976 -13.0719 0.062562 0 200 0
-19.4 -13.0762 0.0633539 0 200 0
-19.4025 -13.0804 0.0641458 0 200 0
-19.405 -13.0847 0.0649378 0 200 0
-19.4074 -13.089 0.0657297 0 200 0
-19.4099 -13.0933 0.0665216 0 200 0
-19.4124 -13.0975 0.0673135 0 200 0
-19.4148 -13.1018 0.0681055 0 200 0
-19.4173 -13.1061 0.0688974 0 200 0
-19.4198 -13.1104 0.0696893 0 200 0
-19.4223 -13.1146 0.0704812 0 200 0
-19.4247 -13.1189 0.0712732 0 200 0
-19.4272 -13.1232 0.0720651 0 200 0
-19.4297 -13.1275 0.072857 0 200 0
-19.4321 -13.1317 0.0736489 0 200 0
-19.4346 -13.136 0.0744409 0 200 0
-19.4371 -13.1403 0.0752328 0 200 0
-19.4395 -13.1446 0.0760247 0 200 0
-19.442 -13.1488 0.0768166 0 200 0
-19.4445 -13.1531 0.0776085 0 200 0
-19.4469 -13.1574 0.0784005 0 200 0
-20.7397 -13.569 0 0 200 0
-20.7422 -13.5732 0.0011768 0 200 0
-20.7446 -13.5774 0.00235361 0 200 0
-20.747 -13.5816 0.00353041 0 200 0
-20.7495 -13.5858 0.00470722 0 200 0
-20.7519 -13.5901 0.00588402 0 200 0
-20.7543 -13.5943 0.00706082 0 200 0
-20.7568 -13.5985 0.00823763 0 200 0
-20.7592 -13.6027 0.00941443 0 200 0
-20.7616 -13.6069 0.0105912 0 200 0
-20.7641 -13.6111 0.011768 0 200 0
-20.7665 -13.6153 0.0129448 0 200 0
-20.7689 -13.6195 0.0141216 0 200 0
-20.7714 -13.6237 0.0152984 0 200 0
-20.7738 -13.6279 0.0164753 0 200 0
-20.7762 -13.6321 0.0176521 0 200 0
-20.7787 -13.6363 0.0188289 0 200 0
-20.7811 -13.6405 0.0200057 0 200 0
-20.7835 -13.6447 0.0211825 0 200 0
-20.786 -13.649 0.0223593 0 200 0
-20.7884 -13.6532 0.0235361 0 200 0
-20.7908 -13.6574 0.0247129 0 200 0
-20.7933 -13.6616 0.0258897 0 200 0
-20.7957 -13.6658 0.0270665 0 200 0
-20.7981 -13.67 0.0282433 0 200 0
-20.8006 -13.6742 0.0294201 0 200 0
-20.803 -13.6784 0.0305969 0 200 0
-20.8054 -13.6826 0.0317737 0 200 0
-20.8079 -13.6868 0.0329505 0 200 0
-20.8103 -13.691 0.0341273 0 200 0
-20.8127 -13.6952 0.0353041 0 200 0
-20.8152 -13.6994 0.0364809 0 200 0
-20.8176 -13.7036 0.0376577 0 200 0
-20.82 -13.7079 0.0388345 0 200 0
-20.8225 -13.7121 0.0400113 0 200 0
-20.8249 -13.7163 0.0411881 0 200 0
-20.8273 -13.7205 0.0423649 0 200 0
-20.8298 -13.7247 0.0435417 0 200 0
-20.8322 -13.7289 0.0447185 0 200 0
-20.8346 -13.7331 0.0458953 0 200 0
-20.8371 -13.7373 0.0470722 0 200 0
-20.8395 -13.7415 0.048249 0 200 0
-20.8419 -13.7457 0.0494258 0 200 0
-20.8443 -13.7499 0.0506026 0 200 0
-20.8468 -13.7541 0.0517794 0 200 0
-20.8492 -13.7583 0.0529562 0 200 0
-20.8516 -13.7625 0.054133 0 200 0
-20.8541 -13.7667 0.0553098 0 200 0
-20.8565 -13.771 0.0564866 0 200 0
-20.8589 -13.7752 0.0576634 0 200 0
-20.8614 -13.7794 0.0588402 0 200 0
-20.8638 -13.7836 0.060017 0 200 0
-20.8662 -13.7878 0.0611938 0 200 0
-20.8687 -13.792 0.0623706 0 200 0
-20.8711 -13.7962 0.0635474 0 200 0
-20.8735 -13.8004 0.0647242 0 200 0
-20.876 -13.8046 0.065901 0 200 0
-20.8784 -13.8088 0.0670778 0 200 0
-20.8808 -13.813 0.0682546 0 200 0
-20.8833 -13.8172 0.0694314 0 200 0
-20.8857 -13.8214 0.0706082 0 200 0
-20.8881 -13.8256 0.071785 0 200 0
-20.8906 -13.8299 0.0729618 0 200 0
-20.893 -13.8341 0.0741386 0 200 0
-20.8954 -13.8383 0.0753154 0 200 0
-20.8979 -13.8425 0.0764922 0 200 0
-20.9003 -13.8467 0.0776691 0 200 0
-20.9027 -13.8509 0.0788459 0 200 0
-20.9052 -13.8551 0.0800227 0 200 0
-20.9076 -13.8593 0.0811995 0 200 0
-20.91 -13.8635 0.0823763 0 200 0
-20.9125 -13.8677 0.0835531 0 200 0
-20.9149 -13.8719 0.0847299 0 200 0
-20.9173 -13.8761 0.0859067 0 200 0
-20.9198 -13.8803 0.0870835 0 200 0
-20.9222 -13.8845 0.0882603 0 200 0
-20.9246 -13.8887 0.0894371 0 200 0
-20.9271 -13.893 0.0906139 0 200 0
-20.9295 -13.8972 0.0917907 0 200 0
-20.9319 -13.9014 0.0929675 0 200 0
-20.9344 -13.9056 0.0941443 0 200 0
-20.9368 -13.9098 0.0953211 0 200 0
-20.9392 -13.914 0.0964979 0 200 0
-20.9416 -13.9182 0.0976747 0 200 0
-20.9441 -13.9224 0.0988515 0 200 0
-20.9465 -13.9266 0.100028 0 200 0
-20.9489 -13.9308 0.101205 0 200 0
-20.9514 -13.935 0.102382 0 200 0
-20.9538 -13.9392 0.103559 0 200 0
-20.9562 -13.9434 0.104736 0 200 0
-20.9587 -13.9476 0.105912 0 200 0
-20.9611 -13.9519 0.107089 0 200 0
-20.9635 -13.9561 0.108266 0 200 0
-20.966 -13.9603 0.109443 0 200 0
-20.9684 -13.9645 0.11062 0 200 0
-20.9708 -13.9687 0.111796 0 200 0
-20.9733 -13.9729 0.112973 0 200 0
-20.9757 -13.9771 0.11415 0 200 0
-20.9781 -13.9813 0.115327 0 200 0
-20.9806 -13.9855 0.116504 0 200 0
-22.0407 -14.542 0 0 200 0
-22.0434 -14.5461 0.00096494 0 200 0
-22.0462 -14.5502 0.00192988 0 200 0
-22.0489 -14.5543 0.00289482 0 200 0
-22.0516 -14.5583 0.00385976 0 200 0
-22.0543 -14.5624 0.0048247 0 200 0
-22.0571 -14.5665 0.00578964 0 200 0
-22.0598 -14.5706 0.00675458 0 200 0
-22.0625 -14.5746 0.00771952 0 200 0
-22.0653 -14.5787 0.00868446 0 200 0
-22.068 -14.5828 0.00964941 0 200 0
-22.0707 -14.5869 0.0106143 0 200 0
-22.0734 -14.591 0.0115793 0 200 0
-22.0762 -14.595 0.0125442 0 200 0
-22.0789 -14.5991 0.0135092 0 200 0
-22.0816 -14.6032 0.0144741 0 200 0
-22.0844 -14.6073 0.015439 0 200 0
-22.0871 -14.6113 0.016404 0 200 0
-22.0898 -14.6154 0.0173689 0 200 0
-22.0925 -14.6195 0.0183339 0 200 0
-22.0953 -14.6236 0.0192988 0 200 0
-22.098 -14.6276 0.0202638 0 200 0
-22.1007 -14.6317 0.0212287 0 200 0
-22.1035 -14.6358 0.0221936 0 200 0
-22.1062 -14.6399 0.0231586 0 200 0
-22.1089 -14.644 0.0241235 0 200 0
-22.1116 -14.648 0.0250885 0 200 0
-22.1144 -14.6521 0.0260534 0 200 0
-22.1171 -14.6562 0.0270183 0 200 0
-22.1198 -14.6603 0.0279833 0 200 0
-22.1225 -14.6643 0.0289482 0 200 0
-22.1253 -14.6684 0.0299132 0 200 0
-22.128 -14.6725 0.0308781 0 200 0
-22.1307 -14.6766 0.031843 0 200 0
-22.1335 -14.6807 0.032808 0 200 0
-22.1362 -14.6847 0.0337729 0 200 0
-22.1389 -14.6888 0.0347379 0 200 0
-22.1416 -14.6929 0.0357028 0 200 0
-22.1444 -14.697 0.0366677 0 200 0
-22.1471 -14.701 0.0376327 0 200 0
-22.1498 -14.7051 0.0385976 0 200 0
-22.1526 -14.7092 0.0395626 0 200 0
-22.1553 -14.7133 0.0405275 0 200 0
-22.158 -14.7174 0.0414924 0 200 0
-22.1607 -14.7214 0.0424574 0 200 0
-22.1635 -14.7255 0.0434223 0 200 0
-22.1662 -14.7296 0.0443873 0 200 0
-22.1689 -14.7337 0.0453522 0 200 0
-22.1717 -14.7377 0.0463171 0 200 0
-22.1744 -14.7418 0.0472821 0 200 0
-22.1771 -14.7459 0.048247 0 200 0
-22.1798 -14.75 0.049212 0 200 0
-22.1826 -14.754 0.0501769 0 200 0
-22.1853 -14.7581 0.0511418 0 200 0
-22.188 -14.7622 0.0521068 0 200 0
-22.1908 -14.7663 0.0530717 0 200 0
-22.1935 -14.7704 0.0540367 0 200 0
-22.1962 -14.7744 0.0550016 0 200 0
-22.1989 -14.7785 0.0559665 0 200 0
-22.2017 -14.7826 0.0569315 0 200 0
-22.2044 -14.7867 0.0578964 0 200 0
-22.2071 -14.7907 0.0588614 0 200 0
-22.2099 -14.7948 0.0598263 0 200 0
-22.2126 -14.7989 0.0607913 0 200 0
-22.2153 -14.803 0.0617562 0 200 0
-22.218 -14.8071 0.0627211 0 200 0
-22.2208 -14.8111 0.0636861 0 200 0
-22.2235 -14.8152 0.064651 0 200 0
-22.2262 -14.8193 0.065616 0 200 0
-22.229 -14.8234 0.0665809 0 200 0
-22.2317 -14.8274 0.0675458 0 200 0
-22.2344 -14.8315 0.0685108 0 200 0
-22.2371 -14.8356 0.0694757 0 200 0
-22.2399 -14.8397 0.0704407 0 200 0
-22.2426 -14.8438 0.0714056 0 200 0
-22.2453 -14.8478 0.0723705 0 200 0
-22.2481 -14.8519 0.0733355 0 200 0
-22.2508 -14.856 0.0743004 0 200 0
-22.2535 -14.8601 0.0752654 0 200 0
-22.2562 -14.8641 0.0762303 0 200 0
-22.259 -14.8682 0.0771952 0 200 0
-22.2617 -14.8723 0.0781602 0 200 0
-22.2644 -14.8764 0.0791251 0 200 0
-22.2671 -14.8804 0.0800901 0 200 0
-22.2699 -14.8845 0.081055 0 200 0
-22.2726 -14.8886 0.0820199 0 200 0
-22.2753 -14.8927 0.0829849 0 200 0
-22.2781 -14.8968 0.0839498 0 200 0
-22.2808 -14.9008 0.0849148 0 200 0
-22.2835 -14.9049 0.0858797 0 200 0
-22.2862 -14.909 0.0868446 0 200 0
-22.289 -14.9131 0.0878096 0 200 0
-22.2917 -14.9171 0.0887745 0 200 0
-22.2944 -14.9212 0.0897395 0 200 0
-22.2972 -14.9253 0.0907044 0 200 0
-22.2999 -14.9294 0.0916693 0 200 0
-22.3026 -14.9335 0.0926343 0 200 0
-22.3053 -14.9375 0.0935992 0 200 0
-22.3081 -14.9416 0.0945642 0 200 0
-22.3108 -14.9457 0.0955291 0 200 0
-23.1445 -15.6173 0 0 200 0
-23.1475 -15.6212 0.000945977 0 200 0
-23.1505 -15.6251 0.00189195 0 200 0
-23.1535 -15.629 0.00283793 0 200 0
-23.1565 -15.6329 0.00378391 0 200 0
-23.1595 -15.6368 0.00472989 0 200 0
-23.1625 -15.6407 0.00567586 0 200 0
-23.1655 -15.6446 0.00662184 0 200 0
-23.1684 -15.6485 0.00756782 0 200 0
-23.1714 -15.6524 0.00851379 0 200 0
-23.1744 -15.6563 0.00945977 0 200 0
-23.1774 -15.6602 0.0104057 0 200 0
-23.1804 -15.6641 0.0113517 0 200 0
-23.1834 -15.668 0.0122977 0 200 0
-23.1864 -15.6719 0.0132437 0 200 0
-23.1894 -15.6758 0.0141897 0 200 0
-23.1923 -15.6797 0.0151356 0 200 0
-23.1953 -15.6836 0.0160816 0 200 0
-23.1983 -15.6875 0.0170276 0 200 0
-23.2013 -15.6914 0.0179736 0 200 0
-23.2043 -15.6953 0.0189195 0 200 0
-23.2073 -15.6992 0.0198655 0 200 0
-23.2103 -15.7031 0.0208115 0 200 0
-23.2133 -15.7069 0.0217575 0 200 0
-23.2162 -15.7108 0.0227035 0 200 0
-23.2192 -15.7147 0.0236494 0 200 0
-23.2222 -15.7186 0.0245954 0 200 0
-23.2252 -15.7225 0.0255414 0 200 0
-23.2282 -15.7264 0.0264874 0 200 0
-23.2312 -15.7303 0.0274333 0 200 0
-23.2342 -15.7342 0.0283793 0 200 0
-23.2372 -15.7381 0.0293253 0 200 0
-23.2401 -15.742 0.0302713 0 200 0
-23.2431 -15.7459 0.0312172 0 200 0
-23.2461 -15.7498 0.0321632 0 200 0
-23.2491 -15.7537 0.0331092 0 200 0
-23.2521 -15.7576 0.0340552 0 200 0
-23.2551 -15.7615 0.0350012 0 200 0
-23.2581 -15.7654 0.0359471 0 200 0
-23.2611 -15.7693 0.0368931 0 200 0
-23.264 -15.7732 0.0378391 0 200 0
-23.267 -15.7771 0.0387851 0 200 0
-23.27 -15.781 0.039731 0 200 0
-23.273 -15.7849 0.040677 0 200 0
-23.276 -15.7888 0.041623 0 200 0
-23.279 -15.7927 0.042569 0 200 0
-23.282 -15.7966 0.0435149 0 200 0
-23.285 -15.8005 0.0444609 0 200 0
-23.2879 -15.8044 0.0454069 0 200 0
-23.2909 -15.8082 0.0463529 0 200 0
-23.2939 -15.8121 0.0472989 0 200 0
-23.2969 -15.816 0.0482448 0 200 0
-23.2999 -15.8199 0.0491908 0 200 0
-23.3029 -15.8238 0.0501368 0 200 0
-23.3059 -15.8277 0.0510828 0 200 0
-23.3089 -15.8316 0.0520287 0 200 0
-23.3118 -15.8355 0.0529747 0 200 0
-23.3148 -15.8394 0.0539207 0 200 0
-23.3178 -15.8433 0.0548667 0 200 0
-23.3208 -15.8472 0.0558126 0 200 0
-23.3238 -15.8511 0.0567586 0 200 0
-23.3268 -15.855 0.0577046 0 200 0
-23.3298 -15.8589 0.0586506 0 200 0
-23.3328 -15.8628 0.0595966 0 200 0
-23.3357 -15.8667 0.0605425 0 200 0
-23.3387 -15.8706 0.0614885 0 200 0
-23.3417 -15.8745 0.0624345 0 200 0
-23.3447 -15.8784 0.0633805 0 200 0
-23.3477 -15.8823 0.0643264 0 200 0
-23.3507 -15.8862 0.0652724 0 200 0
-23.3537 -15.8901 0.0662184 0 200 0
-23.3567 -15.894 0.0671644 0 200 0
-23.3596 -15.8979 0.0681103 0 200 0
-23.3626 -15.9018 0.0690563 0 200 0
-23.3656 -15.9057 0.0700023 0 200 0
-23.3686 -15.9096 0.0709483 0 200 0
-23.3716 -15.9134 0.0718943 0 200 0
-23.3746 -15.9173 0.0728402 0 200 0
-23.3776 -15.9212 0.0737862 0 200 0
-23.3806 -15.9251 0.0747322 0 200 0
-23.3835 -15.929 0.0756782 0 200 0
-23.3865 -15.9329 0.0766241 0 200 0
-23.3895 -15.9368 0.0775701 0 200 0
-23.3925 -15.9407 0.0785161 0 200 0
-23.3955 -15.9446 0.0794621 0 200 0
-23.3985 -15.9485 0.0804081 0 200 0
-23.4015 -15.9524 0.081354 0 200 0
-23.4044 -15.9563 0.0823 0 200 0
-23.4074 -15.9602 0.083246 0 200 0
-23.4104 -15.9641 0.084192 0 200 0
-23.4134 -15.968 0.0851379 0 200 0
-23.4164 -15.9719 0.0860839 0 200 0
-23.4194 -15.9758 0.0870299 0 200 0
-23.4224 -15.9797 0.0879759 0 200 0
-23.4254 -15.9836 0.0889218 0 200 0
-23.4283 -15.9875 0.0898678 0 200 0
-23.4313 -15.9914 0.0908138 0 200 0
-23.4343 -15.9953 0.0917598 0 200 0
-23.4373 -15.9992 0.0927057 0 200 0
-23.4403 -16.0031 0.0936517 0 200 0
-24.2432 -16.6026 0 0 200 0
-24.2455 -16.6069 0.00052317 0 200 0
-24.2479 -16.6113 0.00104634 0 200 0
-24.2503 -16.6157 0.00156951 0 200 0
-24.2527 -16.62 0.00209268 0 200 0
-24.255 -16.6244 0.00261585 0 200 0
-24.2574 -16.6288 0.00313902 0 200 0
-24.2598 -16.6331 0.00366219 0 200 0
-24.2622 -16.6375 0.00418536 0 200 0
-24.2646 -16.6419 0.00470853 0 200 0
-24.2669 -16.6462 0.0052317 0 200 0
-24.2693 -16.6506 0.00575487 0 200 0
-24.2717 -16.655 0.00627804 0 200 0
-24.2741 -16.6593 0.00680121 0 200 0
-24.2765 -16.6637 0.00732438 0 200 0
-24.2788 -16.6681 0.00784755 0 200 0
-24.2812 -16.6724 0.00837072 0 200 0
-24.2836 -16.6768 0.00889389 0 200 0
-24.286 -16.6812 0.00941706 0 200 0
-24.2884 -16.6855 0.00994023 0 200 0
-24.2907 -16.6899 0.0104634 0 200 0
-24.2931 -16.6943 0.0109866 0 200 0
-24.2955 -16.6986 0.0115097 0 200 0
-24.2979 -16.703 0.0120329 0 200 0
-24.3002 -16.7074 0.0125561 0 200 0
-24.3026 -16.7117 0.0130793 0 200 0
-24.305 -16.7161 0.0136024 0 200 0
-24.3074 -16.7205 0.0141256 0 200 0
-24.3098 -16.7248 0.0146488 0 200 0
-24.3121 -16.7292 0.0151719 0 200 0
-24.3145 -16.7336 0.0156951 0 200 0
-24.3169 -16.7379 0.0162183 0 200 0
-24.3193 -16.7423 0.0167414 0 200 0
-24.3217 -16.7467 0.0172646 0 200 0
-24.324 -16.751 0.0177878 0 200 0
-24.3264 -16.7554 0.018311 0 200 0
-24.3288 -16.7598 0.0188341 0 200 0
-24.3312 -16.7641 0.0193573 0 200 0
-24.3336 -16.7685 0.0198805 0 200 0
-24.3359 -16.7729 0.0204036 0 200 0
-24.3383 -16.7772 0.0209268 0 200 0
-24.3407 -16.7816 0.02145 0 200 0
-24.3431 -16.786 0.0219731 0 200 0
-24.3454 -16.7903 0.0224963 0 200 0
-24.3478 -16.7947 0.0230195 0 200 0
-24.3502 -16.7991 0.0235427 0 200 0
-24.3526 -16.8034 0.0240658 0 200 0
-24.355 -16.8078 0.024589 0 200 0
-24.3573 -16.8122 0.0251122 0 200 0
-24.3597 -16.8165 0.0256353 0 200 0
-24.3621 -16.8209 0.0261585 0 200 0
-24.3645 -16.8253 0.0266817 0 200 0
-24.3669 -16.8296 0.0272048 0 200 0
-24.3692 -16.834 0.027728 0 200 0
-24.3716 -16.8384 0.0282512 0 200 0
-24.374 -16.8427 0.0287744 0 200 0
-24.3764 -16.8471 0.0292975 0 200 0
-24.3788 -16.8515 0.0298207 0 200 0
-24.3811 -16.8558 0.0303439 0 200 0
-24.3835 -16.8602 0.030867 0 200 0
-24.3859 -16.8646 0.0313902 0 200 0
-24.3883 -16.8689 0.0319134 0 200 0
-24.3906 -16.8733 0.0324365 0 200 0
-24.393 -16.8777 0.0329597 0 200 0
-24.3954 -16.882 0.0334829 0 200 0
-24.3978 -16.8864 0.0340061 0 200 0
-24.4002 -16.8908 0.0345292 0 200 0
-24.4025 -16.8951 0.0350524 0 200 0
-24.4049 -16.8995 0.0355756 0 200 0
-24.4073 -16.9039 0.0360987 0 200 0
-24.4097 -16.9082 0.0366219 0 200 0
-24.4121 -16.9126 0.0371451 0 200 0
-24.4144 -16.917 0.0376682 0 200 0
-24.4168 -16.9213 0.0381914 0 200 0
-24.4192 -16.9257 0.0387146 0 200 0
-24.4216 -16.9301 0.0392378 0 200 0
-24.424 -16.9344 0.0397609 0 200 0
-24.4263 -16.9388 0.0402841 0 200 0
-24.4287 -16.9432 0.0408073 0 200 0
-24.4311 -16.9475 0.0413304 0 200 0
-24.4335 -16.9519 0.0418536 0 200 0
-24.4358 -16.9563 0.0423768 0 200 0
-24.4382 -16.9606 0.0428999 0 200 0
-24.4406 -16.965 0.0434231 0 200 0
-24.443 -16.9694 0.0439463 0 200 0
-24.4454 -16.9737 0.0444695 0 200 0
-24.4477 -16.9781 0.0449926 0 200 0
-24.4501 -16.9825 0.0455158 0 200 0
-24.4525 -16.9868 0.046039 0 200 0
-24.4549 -16.9912 0.0465621 0 200 0
-24.4573 -16.9956 0.0470853 0 200 0
-24.4596 -16.9999 0.0476085 0 200 0
-24.462 -17.0043 0.0481316 0 200 0
-24.4644 -17.0087 0.0486548 0 200 0
-24.4668 -17.013 0.049178 0 200 0
-24.4692 -17.0174 0.0497012 0 200 0
-24.4715 -17.0218 0.0502243 0 200 0
-24.4739 -17.0261 0.0507475 0 200 0
-24.4763 -17.0305 0.0512707 0 200 0
-24.4787 -17.0349 0.0517938 0 200 0
-25.3872 -17.7123 0 0 200 0
-25.3893 -17.7168 0.000752388 0 200 0
-25.3913 -17.7213 0.00150478 0 200 0
-25.3933 -17.7258 0.00225717 0 200 0
-25.3954 -17.7303 0.00300955 0 200 0
-25.3974 -17.7348 0.00376194 0 200 0
-25.3995 -17.7393 0.00451433 0 200 0
-25.4015 -17.7438 0.00526672 0 200 0
-25.4035 -17.7484 0.00601911 0 200 0
-25.4056 -17.7529 0.0067715 0 200 0
-25.4076 -17.7574 0.00752388 0 200 0
-25.4097 -17.7619 0.00827627 0 200 0
-25.4117 -17.7664 0.00902866 0 200 0
-25.4137 -17.7709 0.00978105 0 200 0
-25.4158 -17.7754 0.0105334 0 200 0
-25.4178 -17.7799 0.0112858 0 200 0
-25.4199 -17.7844 0.0120382 0 200 0
-25.4219 -17.7889 0.0127906 0 200 0
-25.4239 -17.7934 0.013543 0 200 0
-25.426 -17.7979 0.0142954 0 200 0
-25.428 -17.8024 0.0150478 0 200 0
-25.4301 -17.8069 0.0158002 0 200 0
-25.4321 -17.8114 0.0165525 0 200 0
-25.4341 -17.8159 0.0173049 0 200 0
-25.4362 -17.8204 0.0180573 0 200 0
-25.4382 -17.8249 0.0188097 0 200 0
-25.4403 -17.8294 0.0195621 0 200 0
-25.4423 -17.8339 0.0203145 0 200 0
-25.4443 -17.8384 0.0210669 0 200 0
-25.4464 -17.8429 0.0218193 0 200 0
-25.4484 -17.8474 0.0225716 0 200 0
-25.4504 -17.8519 0.023324 0 200 0
-25.4525 -17.8564 0.0240764 0 200 0
-25.4545 -17.8609 0.0248288 0 200 0
-25.4566 -17.8654 0.0255812 0 200 0
-25.4586 -17.8699 0.0263336 0 200 0
-25.4606 -17.8744 0.027086 0 200 0
-25.4627 -17.8789 0.0278384 0 200 0
-25.4647 -17.8834 0.0285908 0 200 0
-25.4668 -17.8879 0.0293431 0 200 0
-25.4688 -17.8924 0.0300955 0 200 0
-25.4708 -17.8969 0.0308479 0 200 0
-25.4729 -17.9014 0.0316003 0 200 0
-25.4749 -17.9059 0.0323527 0 200 0
-25.477 -17.9104 0.0331051 0 200 0
-25.479 -17.915 0.0338575 0 200 0
-25.481 -17.9195 0.0346099 0 200 0
-25.4831 -17.924 0.0353623 0 200 0
-25.4851 -17.9285 0.0361146 0 200 0
-25.4872 -17.933 0.036867 0 200 0
-25.4892 -17.9375 0.0376194 0 200 0
-25.4912 -17.942 0.0383718 0 200 0
-25.4933 -17.9465 0.0391242 0 200 0
-25.4953 -17.951 0.0398766 0 200 0
-25.4974 -17.9555 0.040629 0 200 0
-25.4994 -17.96 0.0413814 0 200 0
-25.5014 -17.9645 0.0421337 0 200 0
-25.5035 -17.969 0.0428861 0 200 0
-25.5055 -17.9735 0.0436385 0 200 0
-25.5076 -17.978 0.0443909 0 200 0
-25.5096 -17.9825 0.0451433 0 200 0
-25.5116 -17.987 0.0458957 0 200 0
-25.5137 -17.9915 0.0466481 0 200 0
-25.5157 -17.996 0.0474005 0 200 0
-25.5177 -18.0005 0.0481529 0 200 0
-25.5198 -18.005 0.0489052 0 200 0
-25.5218 -18.0095 0.0496576 0 200 0
-25.5239 -18.014 0.05041 0 200 0
-25.5259 -18.0185 0.0511624 0 200 0
-25.5279 -18.023 0.0519148 0 200 0
-25.53 -18.0275 0.0526672 0 200 0
-25.532 -18.032 0.0534196 0 200 0
-25.5341 -18.0365 0.054172 0 200 0
-25.5361 -18.041 0.0549243 0 200 0
-25.5381 -18.0455 0.0556767 0 200 0
-25.5402 -18.05 0.0564291 0 200 0
-25.5422 -18.0545 0.0571815 0 200 0
-25.5443 -18.059 0.0579339 0 200 0
-25.5463 -18.0635 0.0586863 0 200 0
-25.5483 -18.068 0.0594387 0 200 0
-25.5504 -18.0725 0.0601911 0 200 0
-25.5524 -18.077 0.0609435 0 200 0
-25.5545 -18.0816 0.0616958 0 200 0
-25.5565 -18.0861 0.0624482 0 200 0
-25.5585 -18.0906 0.0632006 0 200 0
-25.5606 -18.0951 0.063953 0 200 0
-25.5626 -18.0996 0.0647054 0 200 0
-25.5647 -18.1041 0.0654578 0 200 0
-25.5667 -18.1086 0.0662102 0 200 0
-25.5687 -18.1131 0.0669626 0 200 0
-25.5708 -18.1176 0.067715 0 200 0
-25.5728 -18.1221 0.0684673 0 200 0
-25.5749 -18.1266 0.0692197 0 200 0
-25.5769 -18.1311 0.0699721 0 200 0
-25.5789 -18.1356 0.0707245 0 200 0
-25.581 -18.1401 0.0714769 0 200 0
-25.583 -18.1446 0.0722293 0 200 0
-25.585 -18.1491 0.0729817 0 200 0
-25.5871 -18.1536 0.0737341 0 200 0
-25.5891 -18.1581 0.0744864 0 200 0
-26.3911 -18.8669 0 0 200 0
-26.3942 -18.8707 0.00105361 0 200 0
-26.3973 -18.8745 0.00210722 0 200 0
-26.4004 -18.8782 0.00316083 0 200 0
-26.4035 -18.882 0.00421444 0 200 0
-26.4067 -18.8858 0.00526805 0 200 0
-26.4098 -18.8895 0.00632166 0 200 0
-26.4129 -18.8933 0.00737527 0 200 0
-26.416 -18.897 0.00842888 0 200 0
-26.4191 -18.9008 0.00948249 0 200 0
-26.4223 -18.9046 0.0105361 0 200 0
-26.4254 -18.9083 0.0115897 0 200 0
-26.4285 -18.9121 0.0126433 0 200 0
-26.4316 -18.9159 0.0136969 0 200 0
-26.4347 -18.9196 0.0147505 0 200 0
-26.4379 -18.9234 0.0158041 0 200 0
-26.441 -18.9272 0.0168578 0 200 0
-26.4441 -18.9309 0.0179114 0 200 0
-26.4472 -18.9347 0.018965 0 200 0
-26.4503 -18.9384 0.0200186 0 200 0
-26.4534 -18.9422 0.0210722 0 200 0
-26.4566 -18.946 0.0221258 0 200 0
-26.4597 -18.9497 0.0231794 0 200 0
-26.4628 -18.9535 0.024233 0 200 0
-26.4659 -18.9573 0.0252866 0 200 0
-26.469 -18.961 0.0263402 0 200 0
-26.4722 -18.9648 0.0273938 0 200 0
-26.4753 -18.9685 0.0284475 0 200 0
-26.4784 -18.9723 0.0295011 0 200 0
-26.4815 -18.9761 0.0305547 0 200 0
-26.4846 -18.9798 0.0316083 0 200 0
-26.4878 -18.9836 0.0326619 0 200 0
-26.4909 -18.9874 0.0337155 0 200 0
-26.494 -18.9911 0.0347691 0 200 0
-26.4971 -18.9949 0.0358227 0 200 0
-26.5002 -18.9987 0.0368763 0 200 0
-26.5033 -19.0024 0.0379299 0 200 0
-26.5065 -19.0062 0.0389836 0 200 0
-26.5096 -19.0099 0.0400372 0 200 0
-26.5127 -19.0137 0.0410908 0 200 0
-26.5158 -19.0175 0.0421444 0 200 0
-26.5189 -19.0212 0.043198 0 200 0
-26.5221 -19.025 0.0442516 0 200 0
-26.5252 -19.0288 0.0453052 0 200 0
-26.5283 -19.0325 0.0463588 0 200 0
-26.5314 -19.0363 0.0474124 0 200 0
-26.5345 -19.0401 0.048466 0 200 0
-26.5377 -19.0438 0.0495196 0 200 0
-26.5408 -19.0476 0.0505733 0 200 0
-26.5439 -19.0513 0.0516269 0 200 0
-26.547 -19.0551 0.0526805 0 200 0
-26.5501 -19.0589 0.0537341 0 200 0
-26.5532 -19.0626 0.0547877 0 200 0
-26.5564 -19.0664 0.0558413 0 200 0
-26.5595 -19.0702 0.0568949 0 200 0
-26.5626 -19.0739 0.0579485 0 200 0
-26.5657 -19.0777 0.0590021 0 200 0
-26.5688 -19.0814 0.0600557 0 200 0
-26.572 -19.0852 0.0611094 0 200 0
-26.5751 -19.089 0.062163 0 200 0
-26.5782 -19.0927 0.0632166 0 200 0
-26.5813 -19.0965 0.0642702 0 200 0
-26.5844 -19.1003 0.0653238 0 200 0
-26.5876 -19.104 0.0663774 0 200 0
-26.5907 -19.1078 0.067431 0 200 0
-26.5938 -19.1116 0.0684846 0 200 0
-26.5969 -19.1153 0.0695382 0 200 0
-26.6 -19.1191 0.0705918 0 200 0
-26.6031 -19.1228 0.0716454 0 200 0
-26.6063 -19.1266 0.0726991 0 200 0
-26.6094 -19.1304 0.0737527 0 200 0
-26.6125 -19.1341 0.0748063 0 200 0
-26.6156 -19.1379 0.0758599 0 200 0
-26.6187 -19.1417 0.0769135 0 200 0
-26.6219 -19.1454 0.0779671 0 200 0
-26.625 -19.1492 0.0790207 0 200 0
-26.6281 -19.153 0.0800743 0 200 0
-26.6312 -19.1567 0.0811279 0 200 0
-26.6343 -19.1605 0.0821815 0 200 0
-26.6375 -19.1642 0.0832352 0 200 0
-26.6406 -19.168 0.0842888 0 200 0
-26.6437 -19.1718 0.0853424 0 200 0
-26.6468 -19.1755 0.086396 0 200 0
-26.6499 -19.1793 0.0874496 0 200 0
-26.653 -19.1831 0.0885032 0 200 0
-26.6562 -19.1868 0.0895568 0 200 0
-26.6593 -19.1906 0.0906104 0 200 0
-26.6624 -19.1944 0.091664 0 200 0
-26.6655 -19.1981 0.0927176 0 200 0
-26.6686 -19.2019 0.0937712 0 200 0
-26.6718 -19.2056 0.0948249 0 200 0
-26.6749 -19.2094 0.0958785 0 200 0
-26.678 -19.2132 0.0969321 0 200 0
-26.6811 -19.2169 0.0979857 0 200 0
-26.6842 -19.2207 0.0990393 0 200 0
-26.6874 -19.2245 0.100093 0 200 0
-26.6905 -19.2282 0.101147 0 200 0
-26.6936 -19.232 0.1022 0 200 0
-26.6967 -19.2357 0.103254 0 200 0
-26.6998 -19.2395 0.104307 0 200 0
-27.1889 -20.0844 0 0 200 0
-27.1918 -20.0884 0.000571738 0 200 0
-27.1947 -20.0924 0.00114348 0 200 0
-27.1977 -20.0964 0.00171521 0 200 0
-27.2006 -20.1004 0.00228695 0 200 0
-27.2035 -20.1045 0.00285869 0 200 0
-27.2065 -20.1085 0.00343043 0 200 0
-27.2094 -20.1125 0.00400217 0 200 0
-27.2123 -20.1165 0.0045739 0 200 0
-27.2152 -20.1205 0.00514564 0 200 0
-27.2182 -20.1245 0.00571738 0 200 0
-27.2211 -20.1285 0.00628912 0 200 0
-27.224 -20.1326 0.00686085 0 200 0
-27.2269 -20.1366 0.00743259 0 200 0
-27.2299 -20.1406 0.00800433 0 200 0
-27.2328 -20.1446 0.00857607 0 200 0
-27.2357 -20.1486 0.00914781 0 200 0
-27.2386 -20.1526 0.00971954 0 200 0
-27.2416 -20.1566 0.0102913 0 200 0
-27.2445 -20.1607 0.010863 0 200 0
-27.2474 -20.1647 0.0114348 0 200 0
-27.2503 -20.1687 0.0120065 0 200 0
-27.2533 -20.1727 0.0125782 0 200 0
-27.2562 -20.1767 0.01315 0 200 0
-27.2591 -20.1807 0.0137217 0 200 0
-27.262 -20.1847 0.0142934 0 200 0
-27.265 -20.1888 0.0148652 0 200 0
-27.2679 -20.1928 0.0154369 0 200 0
-27.2708 -20.1968 0.0160087 0 200 0
-27.2737 -20.2008 0.0165804 0 200 0
-27.2767 -20.2048 0.0171521 0 200 0
-27.2796 -20.2088 0.0177239 0 200 0
-27.2825 -20.2128 0.0182956 0 200 0
-27.2854 -20.2169 0.0188674 0 200 0
-27.2884 -20.2209 0.0194391 0 200 0
-27.2913 -20.2249 0.0200108 0 200 0
-27.2942 -20.2289 0.0205826 0 200 0
-27.2971 -20.2329 0.0211543 0 200 0
-27.3001 -20.2369 0.021726 0 200 0
-27.303 -20.2409 0.0222978 0 200 0
-27.3059 -20.245 0.0228695 0 200 0
-27.3088 -20.249 0.0234413 0 200 0
-27.3118 -20.253 0.024013 0 200 0
-27.3147 -20.257 0.0245847 0 200 0
-27.3176 -20.261 0.0251565 0 200 0
-27.3206 -20.265 0.0257282 0 200 0
-27.3235 -20.269 0.0262999 0 200 0
-27.3264 -20.2731 0.0268717 0 200 0
-27.3293 -20.2771 0.0274434 0 200 0
-27.3323 -20.2811 0.0280152 0 200 0
-27.3352 -20.2851 0.0285869 0 200 0
-27.3381 -20.2891 0.0291586 0 200 0
-27.341 -20.2931 0.0297304 0 200 0
-27.344 -20.2971 0.0303021 0 200 0
-27.3469 -20.3012 0.0308738 0 200 0
-27.3498 -20.3052 0.0314456 0 200 0
-27.3527 -20.3092 0.0320173 0 200 0
-27.3557 -20.3132 0.0325891 0 200 0
-27.3586 -20.3172 0.0331608 0 200 0
-27.3615 -20.3212 0.0337325 0 200 0
-27.3644 -20.3252 0.0343043 0 200 0
-27.3674 -20.3293 0.034876 0 200 0
-27.3703 -20.3333 0.0354478 0 200 0
-27.3732 -20.3373 0.0360195 0 200 0
-27.3761 -20.3413 0.0365912 0 200 0
-27.3791 -20.3453 0.037163 0 200 0
-27.382 -20.3493 0.0377347 0 200 0
-27.3849 -20.3533 0.0383064 0 200 0
-27.3878 -20.3574 0.0388782 0 200 0
-27.3908 -20.3614 0.0394499 0 200 0
-27.3937 -20.3654 0.0400217 0 200 0
-27.3966 -20.3694 0.0405934 0 200 0
-27.3995 -20.3734 0.0411651 0 200 0
-27.4025 -20.3774 0.0417369 0 200 0
-27.4054 -20.3814 0.0423086 0 200 0
-27.4083 -20.3855 0.0428803 0 200 0
-27.4112 -20.3895 0.0434521 0 200 0
-27.4142 -20.3935 0.0440238 0 200 0
-27.4171 -20.3975 0.0445956 0 200 0
-27.42 -20.4015 0.0451673 0 200 0
-27.423 -20.4055 0.045739 0 200 0
-27.4259 -20.4095 0.0463108 0 200 0
-27.4288 -20.4136 0.0468825 0 200 0
-27.4317 -20.4176 0.0474542 0 200 0
-27.4347 -20.4216 0.048026 0 200 0
-27.4376 -20.4256 0.0485977 0 200 0
-27.4405 -20.4296 0.0491695 0 200 0
-27.4434 -20.4336 0.0497412 0 200 0
-27.4464 -20.4376 0.0503129 0 200 0
-27.4493 -20.4417 0.0508847 0 200 0
-27.4522 -20.4457 0.0514564 0 200 0
-27.4551 -20.4497 0.0520281 0 200 0
-27.4581 -20.4537 0.0525999 0 200 0
-27.461 -20.4577 0.0531716 0 200 0
-27.4639 -20.4617 0.0537434 0 200 0
-27.4668 -20.4657 0.0543151 0 200 0
-27.4698 -20.4698 0.0548868 0 200 0
-27.4727 -20.4738 0.0554586 0 200 0
-27.4756 -20.4778 0.0560303 0 200 0
-27.4785 -20.4818 0.0566021 0 200 0
-28.0474 -21.18 0 0 200 0
-28.05 -21.1842 0.00060539 0 200 0
-28.0527 -21.1884 0.00121078 0 200 0
-28.0553 -21.1926 0.00181617 0 200 0
-28.0579 -21.1969 0.00242156 0 200 0
-28.0605 -21.2011 0.00302695 0 200 0
-28.0632 -21.2053 0.00363234 0 200 0
-28.0658 -21.2095 0.00423773 0 200 0
-28.0684 -21.2137 0.00484312 0 200 0
-28.071 -21.2179 0.00544851 0 200 0
-28.0737 -21.2221 0.0060539 0 200 0
-28.0763 -21.2263 0.00665929 0 200 0
-28.0789 -21.2306 0.00726469 0 200 0
-28.0815 -21.2348 0.00787008 0 200 0
-28.0842 -21.239 0.00847547 0 200 0
-28.0868 -21.2432 0.00908086 0 200 0
-28.0894 -21.2474 0.00968625 0 200 0
-28.092 -21.2516 0.0102916 0 200 0
-28.0947 -21.2558 0.010897 0 200 0
-28.0973 -21.26 0.0115024 0 200 0
-28.0999 -21.2642 0.0121078 0 200 0
-28.1025 -21.2685 0.0127132 0 200 0
-28.1052 -21.2727 0.0133186 0 200 0
-28.1078 -21.2769 0.013924 0 200 0
-28.1104 -21.2811 0.0145294 0 200 0
-28.113 -21.2853 0.0151348 0 200 0
-28.1157 -21.2895 0.0157402 0 200 0
-28.1183 -21.2937 0.0163455 0 200 0
-28.1209 -21.2979 0.0169509 0 200 0
-28.1235 -21.3022 0.0175563 0 200 0
-28.1262 -21.3064 0.0181617 0 200 0
-28.1288 -21.3106 0.0187671 0 200 0
-28.1314 -21.3148 0.0193725 0 200 0
-28.134 -21.319 0.0199779 0 200 0
-28.1367 -21.3232 0.0205833 0 200 0
-28.1393 -21.3274 0.0211887 0 200 0
-28.1419 -21.3316 0.0217941 0 200 0
-28.1445 -21.3358 0.0223994 0 200 0
-28.1472 -21.3401 0.0230048 0 200 0
-28.1498 -21.3443 0.0236102 0 200 0
-28.1524 -21.3485 0.0242156 0 200 0
-28.155 -21.3527 0.024821 0 200 0
-28.1577 -21.3569 0.0254264 0 200 0
-28.1603 -21.3611 0.0260318 0 200 0
-28.1629 -21.3653 0.0266372 0 200 0
-28.1656 -21.3695 0.0272426 0 200 0
-28.1682 -21.3738 0.027848 0 200 0
-28.1708 -21.378 0.0284534 0 200 0
-28.1734 -21.3822 0.0290587 0 200 0
-28.1761 -21.3864 0.0296641 0 200 0
-28.1787 -21.3906 0.0302695 0 200 0
-28.1813 -21.3948 0.0308749 0 200 0
-28.1839 -21.399 0.0314803 0 200 0
-28.1866 -21.4032 0.0320857 0 200 0
-28.1892 -21.4075 0.0326911 0 200 0
-28.1918 -21.4117 0.0332965 0 200 0
-28.1944 -21.4159 0.0339019 0 200 0
-28.1971 -21.4201 0.0345073 0 200 0
-28.1997 -21.4243 0.0351126 0 200 0
-28.2023 -21.4285 0.035718 0 200 0
-28.2049 -21.4327 0.0363234 0 200 0
-28.2076 -21.4369 0.0369288 0 200 0
-28.2102 -21.4411 0.0375342 0 200 0
-28.2128 -21.4454 0.0381396 0 200 0
-28.2154 -21.4496 0.038745 0 200 0
-28.2181 -21.4538 0.0393504 0 200 0
-28.2207 -21.458 0.0399558 0 200 0
-28.2233 -21.4622 0.0405612 0 200 0
-28.2259 -21.4664 0.0411666 0 200 0
-28.2286 -21.4706 0.0417719 0 200 0
-28.2312 -21.4748 0.0423773 0 200 0
-28.2338 -21.4791 0.0429827 0 200 0
-28.2364 -21.4833 0.0435881 0 200 0
-28.2391 -21.4875 0.0441935 0 200 0
-28.2417 -21.4917 0.0447989 0 200 0
-28.2443 -21.4959 0.0454043 0 200 0
-28.2469 -21.5001 0.0460097 0 200 0
-28.2496 -21.5043 0.0466151 0 200 0
-28.2522 -21.5085 0.0472205 0 200 0
-28.2548 -21.5128 0.0478258 0 200 0
-28.2574 -21.517 0.0484312 0 200 0
-28.2601 -21.5212 0.0490366 0 200 0
-28.2627 -21.5254 0.049642 0 200 0
-28.2653 -21.5296 0.0502474 0 200 0
-28.2679 -21.5338 0.0508528 0 200 0
-28.2706 -21.538 0.0514582 0 200 0
-28.2732 -21.5422 0.0520636 0 200 0
-28.2758 -21.5464 0.052669 0 200 0
-28.2784 -21.5507 0.0532744 0 200 0
-28.2811 -21.5549 0.0538798 0 200 0
-28.2837 -21.5591 0.0544851 0 200 0
-28.2863 -21.5633 0.0550905 0 200 0
-28.2889 -21.5675 0.0556959 0 200 0
-28.2916 -21.5717 0.0563013 0 200 0
-28.2942 -21.5759 0.0569067 0 200 0
-28.2968 -21.5801 0.0575121 0 200 0
-28.2994 -21.5844 0.0581175 0 200 0
-28.3021 -21.5886 0.0587229 0 200 0
-28.3047 -21.5928 0.0593283 0 200 0
-28.3073 -21.597 0.0599337 0 200 0
-28.8396 -22.3238 0 0 200 0
-28.8422 -22.328 0.000854084 0 200 0
-28.8448 -22.3322 0.00170817 0 200 0
-28.8474 -22.3364 0.00256225 0 200 0
-28.85 -22.3405 0.00341633 0 200 0
-28.8526 -22.3447 0.00427042 0 200 0
-28.8552 -22.3489 0.0051245 0 200 0
-28.8578 -22.3531 0.00597859 0 200 0
-28.8605 -22.3572 0.00683267 0 200 0
-28.8631 -22.3614 0.00768675 0 200 0
-28.8657 -22.3656 0.00854084 0 200 0
-28.8683 -22.3698 0.00939492 0 200 0
-28.8709 -22.3739 0.010249 0 200 0
-28.8735 -22.3781 0.0111031 0 200 0
-28.8761 -22.3823 0.0119572 0 200 0
-28.8787 -22.3865 0.0128113 0 200 0
-28.8813 -22.3907 0.0136653 0 200 0
-28.884 -22.3948 0.0145194 0 200 0
-28.8866 -22.399 0.0153735 0 200 0
-28.8892 -22.4032 0.0162276 0 200 0
-28.8918 -22.4074 0.0170817 0 200 0
-28.8944 -22.4115 0.0179358 0 200 0
-28.897 -22.4157 0.0187898 0 200 0
-28.8996 -22.4199 0.0196439 0 200 0
-28.9022 -22.4241 0.020498 0 200 0
-28.9049 -22.4282 0.0213521 0 200 0
-28.9075 -22.4324 0.0222062 0 200 0
-28.9101 -22.4366 0.0230603 0 200 0
-28.9127 -22.4408 0.0239143 0 200 0
-28.9153 -22.445 0.0247684 0 200 0
-28.9179 -22.4491 0.0256225 0 200 0
-28.9205 -22.4533 0.0264766 0 200 0
-28.9231 -22.4575 0.0273307 0 200 0
-28.9258 -22.4617 0.0281848 0 200 0
-28.9284 -22.4658 0.0290388 0 200 0
-28.931 -22.47 0.0298929 0 200 0
-28.9336 -22.4742 0.030747 0 200 0
-28.9362 -22.4784 0.0316011 0 200 0
-28.9388 -22.4825 0.0324552 0 200 0
-28.9414 -22.4867 0.0333093 0 200 0
-28.944 -22.4909 0.0341633 0 200 0
-28.9467 -22.4951 0.0350174 0 200 0
-28.9493 -22.4993 0.0358715 0 200 0
-28.9519 -22.5034 0.0367256 0 200 0
-28.9545 -22.5076 0.0375797 0 200 0
-28.9571 -22.5118 0.0384338 0 200 0
-28.9597 -22.516 0.0392879 0 200 0
-28.9623 -22.5201 0.0401419 0 200 0
-28.9649 -22.5243 0.040996 0 200 0
-28.9676 -22.5285 0.0418501 0 200 0
-28.9702 -22.5327 0.0427042 0 200 0
-28.9728 -22.5368 0.0435583 0 200 0
-28.9754 -22.541 0.0444124 0 200 0
-28.978 -22.5452 0.0452664 0 200 0
-28.9806 -22.5494 0.0461205 0 200 0
-28.9832 -22.5536 0.0469746 0 200 0
-28.9858 -22.5577 0.0478287 0 200 0
-28.9885 -22.5619 0.0486828 0 200 0
-28.9911 -22.5661 0.0495369 0 200 0
-28.9937 -22.5703 0.0503909 0 200 0
-28.9963 -22.5744 0.051245 0 200 0
-28.9989 -22.5786 0.0520991 0 200 0
-29.0015 -22.5828 0.0529532 0 200 0
-29.0041 -22.587 0.0538073 0 200 0
-29.0067 -22.5911 0.0546614 0 200 0
-29.0094 -22.5953 0.0555154 0 200 0
-29.012 -22.5995 0.0563695 0 200 0
-29.0146 -22.6037 0.0572236 0 200 0
-29.0172 -22.6079 0.0580777 0 200 0
-29.0198 -22.612 0.0589318 0 200 0
-29.0224 -22.6162 0.0597859 0 200 0
-29.025 -22.6204 0.0606399 0 200 0
-29.0276 -22.6246 0.061494 0 200 0
-29.0303 -22.6287 0.0623481 0 200 0
-29.0329 -22.6329 0.0632022 0 200 0
-29.0355 -22.6371 0.0640563 0 200 0
-29.0381 -22.6413 0.0649104 0 200 0
-29.0407 -22.6454 0.0657644 0 200 0
-29.0433 -22.6496 0.0666185 0 200 0
-29.0459 -22.6538 0.0674726 0 200 0
-29.0485 -22.658 0.0683267 0 200 0
-29.0512 -22.6622 0.0691808 0 200 0
-29.0538 -22.6663 0.0700349 0 200 0
-29.0564 -22.6705 0.070889 0 200 0
-29.059 -22.6747 0.071743 0 200 0
-29.0616 -22.6789 0.0725971 0 200 0
-29.0642 -22.683 0.0734512 0 200 0
-29.0668 -22.6872 0.0743053 0 200 0
-29.0694 -22.6914 0.0751594 0 200 0
-29.0721 -22.6956 0.0760135 0 200 0
-29.0747 -22.6997 0.0768675 0 200 0
-29.0773 -22.7039 0.0777216 0 200 0
-29.0799 -22.7081 0.0785757 0 200 0
-29.0825 -22.7123 0.0794298 0 200 0
-29.0851 -22.7164 0.0802839 0 200 0
-29.0877 -22.7206 0.081138 0 200 0
-29.0903 -22.7248 0.081992 0 200 0
-29.093 -22.729 0.0828461 0 200 0
-29.0956 -22.7332 0.0837002 0 200 0
-29.0982 -22.7373 0.0845543 0 200 0
-29.666 -23.6831 0 0 200 0
-29.6695 -23.6866 0.000979049 0 200 0
-29.673 -23.69 0.0019581 0 200 0
-29.6765 -23.6935 0.00293715 0 200 0
-29.68 -23.6969 0.0039162 0 200 0
-29.6834 -23.7004 0.00489525 0 200 0
-29.6869 -23.7038 0.00587429 0 200 0
-29.6904 -23.7073 0.00685334 0 200 0
-29.6939 -23.7107 0.00783239 0 200 0
-29.6974 -23.7142 0.00881144 0 200 0
-29.7008 -23.7176 0.00979049 0 200 0
-29.7043 -23.7211 0.0107695 0 200 0
-29.7078 -23.7245 0.0117486 0 200 0
-29.7113 -23.728 0.0127276 0 200 0
-29.7148 -23.7314 0.0137067 0 200 0
-29.7183 -23.7349 0.0146857 0 200 0
-29.7217 -23.7384 0.0156648 0 200 0
-29.7252 -23.7418 0.0166438 0 200 0
-29.7287 -23.7453 0.0176229 0 200 0
-29.7322 -23.7487 0.0186019 0 200 0
-29.7357 -23.7522 0.019581 0 200 0
-29.7391 -23.7556 0.02056 0 200 0
-29.7426 -23.7591 0.0215391 0 200 0
-29.7461 -23.7625 0.0225181 0 200 0
-29.7496 -23.766 0.0234972 0 200 0
-29.7531 -23.7694 0.0244762 0 200 0
-29.7565 -23.7729 0.0254553 0 200 0
-29.76 -23.7763 0.0264343 0 200 0
-29.7635 -23.7798 0.0274134 0 200 0
-29.767 -23.7832 0.0283924 0 200 0
-29.7705 -23.7867 0.0293715 0 200 0
-29.7739 -23.7902 0.0303505 0 200 0
-29.7774 -23.7936 0.0313296 0 200 0
-29.7809 -23.7971 0.0323086 0 200 0
-29.7844 -23.8005 0.0332877 0 200 0
-29.7879 -23.804 0.0342667 0 200 0
-29.7913 -23.8074 0.0352458 0 200 0
-29.7948 -23.8109 0.0362248 0 200 0
-29.7983 -23.8143 0.0372039 0 200 0
-29.8018 -23.8178 0.0381829 0 200 0
-29.8053 -23.8212 0.039162 0 200 0
-29.8087 -23.8247 0.040141 0 200 0
-29.8122 -23.8281 0.0411201 0 200 0
-29.8157 -23.8316 0.0420991 0 200 0
-29.8192 -23.835 0.0430782 0 200 0
-29.8227 -23.8385 0.0440572 0 200 0
-29.8262 -23.842 0.0450363 0 200 0
-29.8296 -23.8454 0.0460153 0 200 0
-29.8331 -23.8489 0.0469944 0 200 0
-29.8366 -23.8523 0.0479734 0 200 0
-29.8401 -23.8558 0.0489525 0 200 0
-29.8436 -23.8592 0.0499315 0 200 0
-29.847 -23.8627 0.0509106 0 200 0
-29.8505 -23.8661 0.0518896 0 200 0
-29.854 -23.8696 0.0528687 0 200 0
-29.8575 -23.873 0.0538477 0 200 0
-29.861 -23.8765 0.0548268 0 200 0
-29.8644 -23.8799 0.0558058 0 200 0
-29.8679 -23.8834 0.0567848 0 200 0
-29.8714 -23.8869 0.0577639 0 200 0
-29.8749 -23.8903 0.0587429 0 200 0
-29.8784 -23.8938 0.059722 0 200 0
-29.8818 -23.8972 0.060701 0 200 0
-29.8853 -23.9007 0.0616801 0 200 0
-29.8888 -23.9041 0.0626591 0 200 0
-29.8923 -23.9076 0.0636382 0 200 0
-29.8958 -23.911 0.0646172 0 200 0
-29.8992 -23.9145 0.0655963 0 200 0
-29.9027 -23.9179 0.0665753 0 200 0
-29.9062 -23.9214 0.0675544 0 200 0
-29.9097 -23.9248 0.0685334 0 200 0
-29.9132 -23.9283 0.0695125 0 200 0
-29.9166 -23.9317 0.0704915 0 200 0
-29.9201 -23.9352 0.0714706 0 200 0
-29.9236 -23.9387 0.0724496 0 200 0
-29.9271 -23.9421 0.0734287 0 200 0
-29.9306 -23.9456 0.0744077 0 200 0
-29.9341 -23.949 0.0753868 0 200 0
-29.9375 -23.9525 0.0763658 0 200 0
-29.941 -23.9559 0.0773449 0 200 0
-29.9445 -23.9594 0.0783239 0 200 0
-29.948 -23.9628 0.079303 0 200 0
-29.9515 -23.9663 0.080282 0 200 0
-29.9549 -23.9697 0.0812611 0 200 0
-29.9584 -23.9732 0.0822401 0 200 0
-29.9619 -23.9766 0.0832192 0 200 0
-29.9654 -23.9801 0.0841982 0 200 0
-29.9689 -23.9835 0.0851773 0 200 0
-29.9723 -23.987 0.0861563 0 200 0
-29.9758 -23.9905 0.0871354 0 200 0
-29.9793 -23.9939 0.0881144 0 200 0
-29.9828 -23.9974 0.0890935 0 200 0
-29.9863 -24.0008 0.0900725 0 200 0
-29.9897 -24.0043 0.0910516 0 200 0
-29.9932 -24.0077 0.0920306 0 200 0
-29.9967 -24.0112 0.0930097 0 200 0
-30.0002 -24.0146 0.0939887 0 200 0
-30.0037 -24.0181 0.0949678 0 200 0
-30.0071 -24.0215 0.0959468 0 200 0
-30.0106 -24.025 0.0969259 0 200 0
-30.5743 -25.2879 0 0 200 0
-30.579 -25.2894 0.000704743 0 200 0
-30.5837 -25.2909 0.00140949 0 200 0
-30.5884 -25.2924 0.00211423 0 200 0
-30.5931 -25.294 0.00281897 0 200 0
-30.5979 -25.2955 0.00352372 0 200 0
-30.6026 -25.297 0.00422846 0 200 0
-30.6073 -25.2985 0.0049332 0 200 0
-30.612 -25.3 0.00563794 0 200 0
-30.6167 -25.3015 0.00634269 0 200 0
-30.6214 -25.3031 0.00704743 0 200 0
-30.6261 -25.3046 0.00775217 0 200 0
-30.6308 -25.3061 0.00845692 0 200 0
-30.6355 -25.3076 0.00916166 0 200 0
-30.6403 -25.3091 0.0098664 0 200 0
-30.645 -25.3107 0.0105711 0 200 0
-30.6497 -25.3122 0.0112759 0 200 0
-30.6544 -25.3137 0.0119806 0 200 0
-30.6591 -25.3152 0.0126854 0 200 0
-30.6638 -25.3167 0.0133901 0 200 0
-30.6685 -25.3182 0.0140949 0 200 0
-30.6732 -25.3198 0.0147996 0 200 0
-30.678 -25.3213 0.0155043 0 200 0
-30.6827 -25.3228 0.0162091 0 200 0
-30.6874 -25.3243 0.0169138 0 200 0
-30.6921 -25.3258 0.0176186 0 200 0
-30.6968 -25.3273 0.0183233 0 200 0
-30.7015 -25.3289 0.0190281 0 200 0
-30.7062 -25.3304 0.0197328 0 200 0
-30.7109 -25.3319 0.0204375 0 200 0
-30.7156 -25.3334 0.0211423 0 200 0
-30.7204 -25.3349 0.021847 0 200 0
-30.7251 -25.3364 0.0225518 0 200 0
-30.7298 -25.338 0.0232565 0 200 0
-30.7345 -25.3395 0.0239613 0 200 0
-30.7392 -25.341 0.024666 0 200 0
-30.7439 -25.3425 0.0253708 0 200 0
-30.7486 -25.344 0.0260755 0 200 0
-30.7533 -25.3455 0.0267802 0 200 0
-30.7581 -25.3471 0.027485 0 200 0
-30.7628 -25.3486 0.0281897 0 200 0
-30.7675 -25.3501 0.0288945 0 200 0
-30.7722 -25.3516 0.0295992 0 200 0
-30.7769 -25.3531 0.030304 0 200 0
-30.7816 -25.3546 0.0310087 0 200 0
-30.7863 -25.3562 0.0317134 0 200 0
-30.791 -25.3577 0.0324182 0 200 0
-30.7957 -25.3592 0.0331229 0 200 0
-30.8005 -25.3607 0.0338277 0 200 0
-30.8052 -25.3622 0.0345324 0 200 0
-30.8099 -25.3637 0.0352372 0 200 0
-30.8146 -25.3653 0.0359419 0 200 0
-30.8193 -25.3668 0.0366466 0 200 0
-30.824 -25.3683 0.0373514 0 200 0
-30.8287 -25.3698 0.0380561 0 200 0
-30.8334 -25.3713 0.0387609 0 200 0
-30.8382 -25.3729 0.0394656 0 200 0
-30.8429 -25.3744 0.0401704 0 200 0
-30.8476 -25.3759 0.0408751 0 200 0
-30.8523 -25.3774 0.0415798 0 200 0
-30.857 -25.3789 0.0422846 0 200 0
-30.8617 -25.3804 0.0429893 0 200 0
-30.8664 -25.382 0.0436941 0 200 0
-30.8711 -25.3835 0.0443988 0 200 0
-30.8759 -25.385 0.0451036 0 200 0
-30.8806 -25.3865 0.0458083 0 200 0
-30.8853 -25.388 0.046513 0 200 0
-30.89 -25.3895 0.0472178 0 200 0
-30.8947 -25.3911 0.0479225 0 200 0
-30.8994 -25.3926 0.0486273 0 200 0
-30.9041 -25.3941 0.049332 0 200 0
-30.9088 -25.3956 0.0500368 0 200 0
-30.9135 -25.3971 0.0507415 0 200 0
-30.9183 -25.3986 0.0514462 0 200 0
-30.923 -25.4002 0.052151 0 200 0
-30.9277 -25.4017 0.0528557 0 200 0
-30.9324 -25.4032 0.0535605 0 200 0
-30.9371 -25.4047 0.0542652 0 200 0
-30.9418 -25.4062 0.05497 0 200 0
-30.9465 -25.4077 0.0556747 0 200 0
-30.9512 -25.4093 0.0563794 0 200 0
-30.956 -25.4108 0.0570842 0 200 0
-30.9607 -25.4123 0.0577889 0 200 0
-30.9654 -25.4138 0.0584937 0 200 0
-30.9701 -25.4153 0.0591984 0 200 0
-30.9748 -25.4168 0.0599032 0 200 0
-30.9795 -25.4184 0.0606079 0 200 0
-30.9842 -25.4199 0.0613126 0 200 0
-30.9889 -25.4214 0.0620174 0 200 0
-30.9936 -25.4229 0.0627221 0 200 0
-30.9984 -25.4244 0.0634269 0 200 0
-31.0031 -25.4259 0.0641316 0 200 0
-31.0078 -25.4275 0.0648364 0 200 0
-31.0125 -25.429 0.0655411 0 200 0
-31.0172 -25.4305 0.0662458 0 200 0
-31.0219 -25.432 0.0669506 0 200 0
-31.0266 -25.4335 0.0676553 0 200 0
-31.0313 -25.435 0.0683601 0 200 0
-31.0361 -25.4366 0.0690648 0 200 0
-31.0408 -25.4381 0.0697696 0 200 0
-31.6116 -27.0678 0 0 200 0
-31.616 -27.0655 0.000806974 0 200 0
-31.6203 -27.0633 0.00161395 0 200 0
-31.6247 -27.061 0.00242092 0 200 0
-31.6291 -27.0587 0.0032279 0 200 0
-31.6335 -27.0564 0.00403487 0 200 0
-31.6379 -27.0542 0.00484185 0 200 0
-31.6422 -27.0519 0.00564882 0 200 0
-31.6466 -27.0496 0.0064558 0 200 0
-31.651 -27.0473 0.00726277 0 200 0
-31.6554 -27.0451 0.00806975 0 200 0
-31.6598 -27.0428 0.00887672 0 200 0
-31.6641 -27.0405 0.00968369 0 200 0
-31.6685 -27.0383 0.0104907 0 200 0
-31.6729 -27.036 0.0112976 0 200 0
-31.6773 -27.0337 0.0121046 0 200 0
-31.6817 -27.0314 0.0129116 0 200 0
-31.686 -27.0292 0.0137186 0 200 0
-31.6904 -27.0269 0.0145255 0 200 0
-31.6948 -27.0246 0.0153325 0 200 0
-31.6992 -27.0223 0.0161395 0 200 0
-31.7036 -27.0201 0.0169465 0 200 0
-31.7079 -27.0178 0.0177534 0 200 0
-31.7123 -27.0155 0.0185604 0 200 0
-31.7167 -27.0133 0.0193674 0 200 0
-31.7211 -27.011 0.0201744 0 200 0
-31.7255 -27.0087 0.0209813 0 200 0
-31.7298 -27.0064 0.0217883 0 200 0
-31.7342 -27.0042 0.0225953 0 200 0
-31.7386 -27.0019 0.0234023 0 200 0
-31.743 -26.9996 0.0242092 0 200 0
-31.7474 -26.9973 0.0250162 0 200 0
-31.7517 -26.9951 0.0258232 0 200 0
-31.7561 -26.9928 0.0266302 0 200 0
-31.7605 -26.9905 0.0274371 0 200 0
-31.7649 -26.9883 0.0282441 0 200 0
-31.7693 -26.986 0.0290511 0 200 0
-31.7736 -26.9837 0.0298581 0 200 0
-31.778 -26.9814 0.030665 0 200 0
-31.7824 -26.9792 0.031472 0 200 0
-31.7868 -26.9769 0.032279 0 200 0
-31.7912 -26.9746 0.033086 0 200 0
-31.7955 -26.9723 0.0338929 0 200 0
-31.7999 -26.9701 0.0346999 0 200 0
-31.8043 -26.9678 0.0355069 0 200 0
-31.8087 -26.9655 0.0363139 0 200 0
-31.8131 -26.9632 0.0371208 0 200 0
-31.8174 -26.961 0.0379278 0 200 0
-31.8218 -26.9587 0.0387348 0 200 0
-31.8262 -26.9564 0.0395418 0 200 0
-31.8306 -26.9542 0.0403487 0 200 0
-31.835 -26.9519 0.0411557 0 200 0
-31.8393 -26.9496 0.0419627 0 200 0
-31.8437 -26.9473 0.0427696 0 200 0
-31.8481 -26.9451 0.0435766 0 200 0
-31.8525 -26.9428 0.0443836 0 200 0
-31.8569 -26.9405 0.0451906 0 200 0
-31.8612 -26.9382 0.0459975 0 200 0
-31.8656 -26.936 0.0468045 0 200 0
-31.87 -26.9337 0.0476115 0 200 0
-31.8744 -26.9314 0.0484185 0 200 0
-31.8788 -26.9292 0.0492254 0 200 0
-31.8831 -26.9269 0.0500324 0 200 0
-31.8875 -26.9246 0.0508394 0 200 0
-31.8919 -26.9223 0.0516464 0 200 0
-31.8963 -26.9201 0.0524533 0 200 0
-31.9007 -26.9178 0.0532603 0 200 0
-31.905 -26.9155 0.0540673 0 200 0
-31.9094 -26.9132 0.0548743 0 200 0
-31.9138 -26.911 0.0556812 0 200 0
-31.9182 -26.9087 0.0564882 0 200 0
-31.9225 -26.9064 0.0572952 0 200 0
-31.9269 -26.9042 0.0581022 0 200 0
-31.9313 -26.9019 0.0589091 0 200 0
-31.9357 -26.8996 0.0597161 0 200 0
-31.9401 -26.8973 0.0605231 0 200 0
-31.9444 -26.8951 0.0613301 0 200 0
-31.9488 -26.8928 0.062137 0 200 0
-31.9532 -26.8905 0.062944 0 200 0
-31.9576 -26.8882 0.063751 0 200 0
-31.962 -26.886 0.064558 0 200 0
-31.9663 -26.8837 0.0653649 0 200 0
-31.9707 -26.8814 0.0661719 0 200 0
-31.9751 -26.8791 0.0669789 0 200 0
-31.9795 -26.8769 0.0677859 0 200 0
-31.9839 -26.8746 0.0685928 0 200 0
-31.9882 -26.8723 0.0693998 0 200 0
-31.9926 -26.8701 0.0702068 0 200 0
-31.997 -26.8678 0.0710138 0 200 0
-32.0014 -26.8655 0.0718207 0 200 0
-32.0058 -26.8632 0.0726277 0 200 0
