ply
format ascii 1.0
element vertex 1368
property float x
property float y
property float z
property uchar red
property uchar green
property uchar blue
element face 0
property list uchar int vertex_indices
end_header
21.6551 29.2919 -0.0138806 0 200 0
21.6549 29.2969 -0.0144589 0 200 0
21.6547 29.3019 -0.0150373 0 200 0
21.6545 29.3068 -0.0156156 0 200 0
21.6542 29.3118 -0.016194 0 200 0
21.654 29.3167 -0.0167723 0 200 0
21.6538 29.3217 -0.0173507 0 200 0
21.6536 29.3267 -0.0179291 0 200 0
21.6534 29.3316 -0.0185074 0 200 0
21.6531 29.3366 -0.0190858 0 200 0
21.6529 29.3415 -0.0196641 0 200 0
21.6527 29.3465 -0.0202425 0 200 0
21.6525 29.3515 -0.0208208 0 200 0
21.6523 29.3564 -0.0213992 0 200 0
21.6521 29.3614 -0.0219776 0 200 0
21.6518 29.3664 -0.0225559 0 200 0
21.6516 29.3713 -0.0231343 0 200 0
21.6514 29.3763 -0.0237126 0 200 0
21.6512 29.3812 -0.024291 0 200 0
21.651 29.3862 -0.0248693 0 200 0
21.6507 29.3912 -0.0254477 0 200 0
21.6505 29.3961 -0.0260261 0 200 0
21.6503 29.4011 -0.0266044 0 200 0
21.6501 29.406 -0.0271828 0 200 0
21.6499 29.411 -0.0277611 0 200 0
21.6496 29.416 -0.0283395 0 200 0
21.6494 29.4209 -0.0289178 0 200 0
21.6492 29.4259 -0.0294962 0 200 0
21.649 29.4309 -0.0300745 0 200 0
21.6488 29.4358 -0.0306529 0 200 0
21.6485 29.4408 -0.0312313 0 200 0
21.6483 29.4457 -0.0318096 0 200 0
21.6481 29.4507 -0.032388 0 200 0
21.6479 29.4557 -0.0329663 0 200 0
21.6477 29.4606 -0.0335447 0 200 0
21.6474 29.4656 -0.034123 0 200 0
21.6472 29.4705 -0.0347014 0 200 0
21.647 29.4755 -0.0352798 0 200 0
21.6468 29.4805 -0.0358581 0 200 0
21.6466 29.4854 -0.0364365 0 200 0
21.6463 29.4904 -0.0370148 0 200 0
21.6461 29.4954 -0.0375932 0 200 0
21.6459 29.5003 -0.0381715 0 200 0
21.6457 29.5053 -0.0387499 0 200 0
21.6455 29.5102 -0.0393283 0 200 0
21.6452 29.5152 -0.0399066 0 200 0
21.645 29.5202 -0.040485 0 200 0
21.6448 29.5251 -0.0410633 0 200 0
21.6446 29.5301 -0.0416417 0 200 0
21.6444 29.535 -0.04222 0 200 0
21.6441 29.54 -0.0427984 0 200 0
21.6439 29.545 -0.0433768 0 200 0
21.6437 29.5499 -0.0439551 0 200 0
21.6435 29.5549 -0.0445335 0 200 0
21.6433 29.5599 -0.0451118 0 200 0
21.643 29.5648 -0.0456902 0 200 0
21.6428 29.5698 -0.0462685 0 200 0
21.6426 29.5747 -0.0468469 0 200 0
21.6424 29.5797 -0.0474253 0 200 0
21.6422 29.5847 -0.0480036 0 200 0
21.6419 29.5896 -0.048582 0 200 0
21.6417 29.5946 -0.0491603 0 200 0
21.6415 29.5995 -0.0497387 0 200 0
21.6413 29.6045 -0.050317 0 200 0
21.6411 29.6095 -0.0508954 0 200 0
21.6408 29.6144 -0.0514738 0 200 0
21.6406 29.6194 -0.0520521 0 200 0
21.6404 29.6244 -0.0526305 0 200 0
21.6402 29.6293 -0.0532088 0 200 0
21.64 29.6343 -0.0537872 0 200 0
21.6397 29.6392 -0.0543655 0 200 0
21.6395 29.6442 -0.0549439 0 200 0
21.6393 29.6492 -0.0555222 0 200 0
21.6391 29.6541 -0.0561006 0 200 0
21.6389 29.6591 -0.056679 0 200 0
21.6386 29.664 -0.0572573 0 200 0
22.929 29.6805 0 0 200 0
22.9275 29.6853 -0.000286131 0 200 0
22.926 29.69 -0.000572263 0 200 0
22.9244 29.6947 -0.000858394 0 200 0
22.9229 29.6995 -0.00114453 0 200 0
22.9213 29.7042 -0.00143066 0 200 0
22.9198 29.709 -0.00171679 0 200 0
22.9182 29.7137 -0.00200292 0 200 0
22.9167 29.7185 -0.00228905 0 200 0
22.9152 29.7232 -0.00257518 0 200 0
22.9136 29.728 -0.00286131 0 200 0
22.9121 29.7327 -0.00314745 0 200 0
22.9105 29.7375 -0.00343358 0 200 0
22.909 29.7422 -0.00371971 0 200 0
22.9075 29.747 -0.00400584 0 200 0
22.9059 29.7517 -0.00429197 0 200 0
22.9044 29.7565 -0.0045781 0 200 0
22.9028 29.7612 -0.00486423 0 200 0
22.9013 29.766 -0.00515037 0 200 0
22.8997 29.7707 -0.0054365 0 200 0
22.8982 29.7755 -0.00572263 0 200 0
22.8967 29.7802 -0.00600876 0 200 0
22.8951 29.785 -0.00629489 0 200 0
22.8936 29.7897 -0.00658102 0 200 0
22.892 29.7944 -0.00686715 0 200 0
22.8905 29.7992 -0.00715329 0 200 0
22.8889 29.8039 -0.00743942 0 200 0
22.8874 29.8087 -0.00772555 0 200 0
22.8859 29.8134 -0.00801168 0 200 0
22.8843 29.8182 -0.00829781 0 200 0
22.8828 29.8229 -0.00858394 0 200 0
22.8812 29.8277 -0.00887008 0 200 0
22.8797 29.8324 -0.00915621 0 200 0
22.8782 29.8372 -0.00944234 0 200 0
22.8766 29.8419 -0.00972847 0 200 0
22.8751 29.8467 -0.0100146 0 200 0
22.8735 29.8514 -0.0103007 0 200 0
22.872 29.8562 -0.0105869 0 200 0
22.8704 29.8609 -0.010873 0 200 0
22.8689 29.8657 -0.0111591 0 200 0
22.8674 29.8704 -0.0114453 0 200 0
22.8658 29.8752 -0.0117314 0 200 0
22.8643 29.8799 -0.0120175 0 200 0
22.8627 29.8846 -0.0123037 0 200 0
22.8612 29.8894 -0.0125898 0 200 0
22.8596 29.8941 -0.0128759 0 200 0
22.8581 29.8989 -0.013162 0 200 0
22.8566 29.9036 -0.0134482 0 200 0
22.855 29.9084 -0.0137343 0 200 0
22.8535 29.9131 -0.0140204 0 200 0
22.8519 29.9179 -0.0143066 0 200 0
22.8504 29.9226 -0.0145927 0 200 0
22.8488 29.9274 -0.0148788 0 200 0
22.8473 29.9321 -0.015165 0 200 0
22.8458 29.9369 -0.0154511 0 200 0
22.8442 29.9416 -0.0157372 0 200 0
22.8427 29.9464 -0.0160234 0 200 0
22.8411 29.9511 -0.0163095 0 200 0
22.8396 29.9559 -0.0165956 0 200 0
22.8381 29.9606 -0.0168818 0 200 0
22.8365 29.9654 -0.0171679 0 200 0
22.835 29.9701 -0.017454 0 200 0
22.8334 29.9749 -0.0177402 0 200 0
22.8319 29.9796 -0.0180263 0 200 0
22.8303 29.9843 -0.0183124 0 200 0
22.8288 29.9891 -0.0185985 0 200 0
22.8273 29.9938 -0.0188847 0 200 0
22.8257 29.9986 -0.0191708 0 200 0
22.8242 30.0033 -0.0194569 0 200 0
22.8226 30.0081 -0.0197431 0 200 0
22.8211 30.0128 -0.0200292 0 200 0
22.8195 30.0176 -0.0203153 0 200 0
22.818 30.0223 -0.0206015 0 200 0
22.8165 30.0271 -0.0208876 0 200 0
22.8149 30.0318 -0.0211737 0 200 0
22.8134 30.0366 -0.0214599 0 200 0
22.8118 30.0413 -0.021746 0 200 0
22.8103 30.0461 -0.0220321 0 200 0
22.8087 30.0508 -0.0223183 0 200 0
22.8072 30.0556 -0.0226044 0 200 0
22.8057 30.0603 -0.0228905 0 200 0
22.8041 30.0651 -0.0231766 0 200 0
22.8026 30.0698 -0.0234628 0 200 0
22.801 30.0746 -0.0237489 0 200 0
22.7995 30.0793 -0.024035 0 200 0
22.798 30.084 -0.0243212 0 200 0
22.7964 30.0888 -0.0246073 0 200 0
22.7949 30.0935 -0.0248934 0 200 0
22.7933 30.0983 -0.0251796 0 200 0
22.7918 30.103 -0.0254657 0 200 0
22.7902 30.1078 -0.0257518 0 200 0
22.7887 30.1125 -0.026038 0 200 0
22.7872 30.1173 -0.0263241 0 200 0
22.7856 30.122 -0.0266102 0 200 0
22.7841 30.1268 -0.0268964 0 200 0
22.7825 30.1315 -0.0271825 0 200 0
22.781 30.1363 -0.0274686 0 200 0
22.7794 30.141 -0.0277548 0 200 0
22.7779 30.1458 -0.0280409 0 200 0
22.7764 30.1505 -0.028327 0 200 0
24.0535 30.5419 0 0 200 0
24.0531 30.5469 -0.000311368 0 200 0
24.0527 30.5519 -0.000622735 0 200 0
24.0522 30.5568 -0.000934103 0 200 0
24.0518 30.5618 -0.00124547 0 200 0
24.0514 30.5668 -0.00155684 0 200 0
24.051 30.5717 -0.00186821 0 200 0
24.0505 30.5767 -0.00217957 0 200 0
24.0501 30.5817 -0.00249094 0 200 0
24.0497 30.5867 -0.00280231 0 200 0
24.0492 30.5916 -0.00311368 0 200 0
24.0488 30.5966 -0.00342504 0 200 0
24.0484 30.6016 -0.00373641 0 200 0
24.048 30.6065 -0.00404778 0 200 0
24.0475 30.6115 -0.00435915 0 200 0
24.0471 30.6165 -0.00467052 0 200 0
24.0467 30.6215 -0.00498188 0 200 0
24.0462 30.6264 -0.00529325 0 200 0
24.0458 30.6314 -0.00560462 0 200 0
24.0454 30.6364 -0.00591599 0 200 0
24.045 30.6413 -0.00622735 0 200 0
24.0445 30.6463 -0.00653872 0 200 0
24.0441 30.6513 -0.00685009 0 200 0
24.0437 30.6563 -0.00716146 0 200 0
24.0432 30.6612 -0.00747283 0 200 0
24.0428 30.6662 -0.00778419 0 200 0
24.0424 30.6712 -0.00809556 0 200 0
24.042 30.6762 -0.00840693 0 200 0
24.0415 30.6811 -0.0087183 0 200 0
24.0411 30.6861 -0.00902966 0 200 0
24.0407 30.6911 -0.00934103 0 200 0
24.0402 30.696 -0.0096524 0 200 0
24.0398 30.701 -0.00996377 0 200 0
24.0394 30.706 -0.0102751 0 200 0
24.039 30.711 -0.0105865 0 200 0
24.0385 30.7159 -0.0108979 0 200 0
24.0381 30.7209 -0.0112092 0 200 0
24.0377 30.7259 -0.0115206 0 200 0
24.0372 30.7308 -0.011832 0 200 0
24.0368 30.7358 -0.0121433 0 200 0
24.0364 30.7408 -0.0124547 0 200 0
24.036 30.7458 -0.0127661 0 200 0
24.0355 30.7507 -0.0130774 0 200 0
24.0351 30.7557 -0.0133888 0 200 0
24.0347 30.7607 -0.0137002 0 200 0
24.0342 30.7656 -0.0140115 0 200 0
24.0338 30.7706 -0.0143229 0 200 0
24.0334 30.7756 -0.0146343 0 200 0
24.033 30.7806 -0.0149457 0 200 0
24.0325 30.7855 -0.015257 0 200 0
24.0321 30.7905 -0.0155684 0 200 0
24.0317 30.7955 -0.0158798 0 200 0
24.0312 30.8004 -0.0161911 0 200 0
24.0308 30.8054 -0.0165025 0 200 0
24.0304 30.8104 -0.0168139 0 200 0
24.03 30.8154 -0.0171252 0 200 0
24.0295 30.8203 -0.0174366 0 200 0
24.0291 30.8253 -0.017748 0 200 0
24.0287 30.8303 -0.0180593 0 200 0
24.0283 30.8353 -0.0183707 0 200 0
24.0278 30.8402 -0.0186821 0 200 0
24.0274 30.8452 -0.0189934 0 200 0
24.027 30.8502 -0.0193048 0 200 0
24.0265 30.8551 -0.0196162 0 200 0
24.0261 30.8601 -0.0199275 0 200 0
24.0257 30.8651 -0.0202389 0 200 0
24.0253 30.8701 -0.0205503 0 200 0
24.0248 30.875 -0.0208616 0 200 0
24.0244 30.88 -0.021173 0 200 0
24.024 30.885 -0.0214844 0 200 0
24.0235 30.8899 -0.0217957 0 200 0
24.0231 30.8949 -0.0221071 0 200 0
24.0227 30.8999 -0.0224185 0 200 0
24.0223 30.9049 -0.0227298 0 200 0
24.0218 30.9098 -0.0230412 0 200 0
24.0214 30.9148 -0.0233526 0 200 0
24.021 30.9198 -0.0236639 0 200 0
24.0205 30.9247 -0.0239753 0 200 0
24.0201 30.9297 -0.0242867 0 200 0
24.0197 30.9347 -0.0245981 0 200 0
24.0193 30.9397 -0.0249094 0 200 0
24.0188 30.9446 -0.0252208 0 200 0
24.0184 30.9496 -0.0255322 0 200 0
24.018 30.9546 -0.0258435 0 200 0
24.0175 30.9596 -0.0261549 0 200 0
24.0171 30.9645 -0.0264663 0 200 0
24.0167 30.9695 -0.0267776 0 200 0
24.0163 30.9745 -0.027089 0 200 0
24.0158 30.9794 -0.0274004 0 200 0
24.0154 30.9844 -0.0277117 0 200 0
24.015 30.9894 -0.0280231 0 200 0
24.0145 30.9944 -0.0283345 0 200 0
24.0141 30.9993 -0.0286458 0 200 0
24.0137 31.0043 -0.0289572 0 200 0
24.0133 31.0093 -0.0292686 0 200 0
24.0128 31.0142 -0.0295799 0 200 0
24.0124 31.0192 -0.0298913 0 200 0
24.012 31.0242 -0.0302027 0 200 0
24.0116 31.0292 -0.030514 0 200 0
24.0111 31.0341 -0.0308254 0 200 0
25.1458 31.5074 0 0 200 0
25.1467 31.5123 -0.000354232 0 200 0
25.1476 31.5172 -0.000708465 0 200 0
25.1484 31.5221 -0.0010627 0 200 0
25.1493 31.527 -0.00141693 0 200 0
25.1501 31.5319 -0.00177116 0 200 0
25.151 31.5368 -0.00212539 0 200 0
25.1519 31.5418 -0.00247963 0 200 0
25.1527 31.5467 -0.00283386 0 200 0
25.1536 31.5516 -0.00318809 0 200 0
25.1544 31.5565 -0.00354232 0 200 0
25.1553 31.5614 -0.00389655 0 200 0
25.1562 31.5663 -0.00425079 0 200 0
25.157 31.5712 -0.00460502 0 200 0
25.1579 31.5761 -0.00495925 0 200 0
25.1587 31.5811 -0.00531348 0 200 0
25.1596 31.586 -0.00566772 0 200 0
25.1605 31.5909 -0.00602195 0 200 0
25.1613 31.5958 -0.00637618 0 200 0
25.1622 31.6007 -0.00673041 0 200 0
25.163 31.6056 -0.00708464 0 200 0
25.1639 31.6105 -0.00743888 0 200 0
25.1648 31.6154 -0.00779311 0 200 0
25.1656 31.6204 -0.00814734 0 200 0
25.1665 31.6253 -0.00850157 0 200 0
25.1673 31.6302 -0.00885581 0 200 0
25.1682 31.6351 -0.00921004 0 200 0
25.1691 31.64 -0.00956427 0 200 0
25.1699 31.6449 -0.0099185 0 200 0
25.1708 31.6498 -0.0102727 0 200 0
25.1716 31.6547 -0.010627 0 200 0
25.1725 31.6597 -0.0109812 0 200 0
25.1734 31.6646 -0.0113354 0 200 0
25.1742 31.6695 -0.0116897 0 200 0
25.1751 31.6744 -0.0120439 0 200 0
25.1759 31.6793 -0.0123981 0 200 0
25.1768 31.6842 -0.0127524 0 200 0
25.1777 31.6891 -0.0131066 0 200 0
25.1785 31.694 -0.0134608 0 200 0
25.1794 31.699 -0.0138151 0 200 0
25.1802 31.7039 -0.0141693 0 200 0
25.1811 31.7088 -0.0145235 0 200 0
25.1819 31.7137 -0.0148778 0 200 0
25.1828 31.7186 -0.015232 0 200 0
25.1837 31.7235 -0.0155862 0 200 0
25.1845 31.7284 -0.0159405 0 200 0
25.1854 31.7334 -0.0162947 0 200 0
25.1862 31.7383 -0.0166489 0 200 0
25.1871 31.7432 -0.0170031 0 200 0
25.188 31.7481 -0.0173574 0 200 0
25.1888 31.753 -0.0177116 0 200 0
25.1897 31.7579 -0.0180658 0 200 0
25.1905 31.7628 -0.0184201 0 200 0
25.1914 31.7677 -0.0187743 0 200 0
25.1923 31.7727 -0.0191285 0 200 0
25.1931 31.7776 -0.0194828 0 200 0
25.194 31.7825 -0.019837 0 200 0
25.1948 31.7874 -0.0201912 0 200 0
25.1957 31.7923 -0.0205455 0 200 0
25.1966 31.7972 -0.0208997 0 200 0
25.1974 31.8021 -0.0212539 0 200 0
25.1983 31.807 -0.0216082 0 200 0
25.1991 31.812 -0.0219624 0 200 0
25.2 31.8169 -0.0223166 0 200 0
25.2009 31.8218 -0.0226709 0 200 0
25.2017 31.8267 -0.0230251 0 200 0
25.2026 31.8316 -0.0233793 0 200 0
25.2034 31.8365 -0.0237336 0 200 0
25.2043 31.8414 -0.0240878 0 200 0
25.2052 31.8463 -0.024442 0 200 0
25.206 31.8513 -0.0247963 0 200 0
25.2069 31.8562 -0.0251505 0 200 0
25.2077 31.8611 -0.0255047 0 200 0
25.2086 31.866 -0.025859 0 200 0
25.2095 31.8709 -0.0262132 0 200 0
25.2103 31.8758 -0.0265674 0 200 0
25.2112 31.8807 -0.0269217 0 200 0
25.212 31.8856 -0.0272759 0 200 0
25.2129 31.8906 -0.0276301 0 200 0
25.2138 31.8955 -0.0279843 0 200 0
25.2146 31.9004 -0.0283386 0 200 0
25.2155 31.9053 -0.0286928 0 200 0
25.2163 31.9102 -0.029047 0 200 0
25.2172 31.9151 -0.0294013 0 200 0
25.2181 31.92 -0.0297555 0 200 0
25.2189 31.9249 -0.0301097 0 200 0
25.2198 31.9299 -0.030464 0 200 0
25.2206 31.9348 -0.0308182 0 200 0
25.2215 31.9397 -0.0311724 0 200 0
25.2224 31.9446 -0.0315267 0 200 0
25.2232 31.9495 -0.0318809 0 200 0
25.2241 31.9544 -0.0322351 0 200 0
25.2249 31.9593 -0.0325894 0 200 0
25.2258 31.9643 -0.0329436 0 200 0
25.2267 31.9692 -0.0332978 0 200 0
25.2275 31.9741 -0.0336521 0 200 0
25.2284 31.979 -0.0340063 0 200 0
25.2292 31.9839 -0.0343605 0 200 0
25.2301 31.9888 -0.0347148 0 200 0
25.2309 31.9937 -0.035069 0 200 0
26.2252 32.441 0 0 200 0
26.2274 32.4455 -0.000141936 0 200 0
26.2296 32.45 -0.000283872 0 200 0
26.2318 32.4545 -0.000425808 0 200 0
26.234 32.459 -0.000567743 0 200 0
26.2362 32.4634 -0.000709679 0 200 0
26.2384 32.4679 -0.000851615 0 200 0
26.2406 32.4724 -0.000993551 0 200 0
26.2428 32.4769 -0.00113549 0 200 0
26.245 32.4814 -0.00127742 0 200 0
26.2472 32.4859 -0.00141936 0 200 0
26.2494 32.4904 -0.00156129 0 200 0
26.2516 32.4949 -0.00170323 0 200 0
26.2538 32.4994 -0.00184517 0 200 0
26.256 32.5038 -0.0019871 0 200 0
26.2582 32.5083 -0.00212904 0 200 0
26.2604 32.5128 -0.00227097 0 200 0
26.2626 32.5173 -0.00241291 0 200 0
26.2648 32.5218 -0.00255485 0 200 0
26.2669 32.5263 -0.00269678 0 200 0
26.2691 32.5308 -0.00283872 0 200 0
26.2713 32.5353 -0.00298065 0 200 0
26.2735 32.5398 -0.00312259 0 200 0
26.2757 32.5443 -0.00326452 0 200 0
26.2779 32.5487 -0.00340646 0 200 0
26.2801 32.5532 -0.0035484 0 200 0
26.2823 32.5577 -0.00369033 0 200 0
26.2845 32.5622 -0.00383227 0 200 0
26.2867 32.5667 -0.0039742 0 200 0
26.2889 32.5712 -0.00411614 0 200 0
26.2911 32.5757 -0.00425808 0 200 0
26.2933 32.5802 -0.00440001 0 200 0
26.2955 32.5847 -0.00454195 0 200 0
26.2977 32.5892 -0.00468388 0 200 0
26.2999 32.5936 -0.00482582 0 200 0
26.3021 32.5981 -0.00496776 0 200 0
26.3043 32.6026 -0.00510969 0 200 0
26.3065 32.6071 -0.00525163 0 200 0
26.3087 32.6116 -0.00539356 0 200 0
26.3109 32.6161 -0.0055355 0 200 0
26.3131 32.6206 -0.00567743 0 200 0
26.3153 32.6251 -0.00581937 0 200 0
26.3175 32.6296 -0.00596131 0 200 0
26.3197 32.634 -0.00610324 0 200 0
26.3219 32.6385 -0.00624518 0 200 0
26.324 32.643 -0.00638711 0 200 0
26.3262 32.6475 -0.00652905 0 200 0
26.3284 32.652 -0.00667099 0 200 0
26.3306 32.6565 -0.00681292 0 200 0
26.3328 32.661 -0.00695486 0 200 0
26.335 32.6655 -0.00709679 0 200 0
26.3372 32.67 -0.00723873 0 200 0
26.3394 32.6745 -0.00738067 0 200 0
26.3416 32.6789 -0.0075226 0 200 0
26.3438 32.6834 -0.00766454 0 200 0
26.346 32.6879 -0.00780647 0 200 0
26.3482 32.6924 -0.00794841 0 200 0
26.3504 32.6969 -0.00809034 0 200 0
26.3526 32.7014 -0.00823228 0 200 0
26.3548 32.7059 -0.00837422 0 200 0
26.357 32.7104 -0.00851615 0 200 0
26.3592 32.7149 -0.00865809 0 200 0
26.3614 32.7193 -0.00880002 0 200 0
26.3636 32.7238 -0.00894196 0 200 0
26.3658 32.7283 -0.0090839 0 200 0
26.368 32.7328 -0.00922583 0 200 0
26.3702 32.7373 -0.00936777 0 200 0
26.3724 32.7418 -0.0095097 0 200 0
26.3746 32.7463 -0.00965164 0 200 0
26.3768 32.7508 -0.00979357 0 200 0
26.379 32.7553 -0.00993551 0 200 0
26.3811 32.7598 -0.0100774 0 200 0
26.3833 32.7642 -0.0102194 0 200 0
26.3855 32.7687 -0.0103613 0 200 0
26.3877 32.7732 -0.0105033 0 200 0
26.3899 32.7777 -0.0106452 0 200 0
26.3921 32.7822 -0.0107871 0 200 0
26.3943 32.7867 -0.0109291 0 200 0
26.3965 32.7912 -0.011071 0 200 0
26.3987 32.7957 -0.0112129 0 200 0
26.4009 32.8002 -0.0113549 0 200 0
26.4031 32.8047 -0.0114968 0 200 0
26.4053 32.8091 -0.0116387 0 200 0
26.4075 32.8136 -0.0117807 0 200 0
26.4097 32.8181 -0.0119226 0 200 0
26.4119 32.8226 -0.0120645 0 200 0
26.4141 32.8271 -0.0122065 0 200 0
26.4163 32.8316 -0.0123484 0 200 0
26.4185 32.8361 -0.0124904 0 200 0
26.4207 32.8406 -0.0126323 0 200 0
26.4229 32.8451 -0.0127742 0 200 0
26.4251 32.8495 -0.0129162 0 200 0
26.4273 32.854 -0.0130581 0 200 0
26.4295 32.8585 -0.0132 0 200 0
26.4317 32.863 -0.013342 0 200 0
26.4339 32.8675 -0.0134839 0 200 0
26.4361 32.872 -0.0136258 0 200 0
26.4383 32.8765 -0.0137678 0 200 0
26.4404 32.881 -0.0139097 0 200 0
26.4426 32.8855 -0.0140517 0 200 0
27.2516 33.2899 0 0 200 0
27.255 33.2935 -0.000212302 0 200 0
27.2585 33.2972 -0.000424605 0 200 0
27.2619 33.3008 -0.000636907 0 200 0
27.2654 33.3044 -0.000849209 0 200 0
27.2688 33.308 -0.00106151 0 200 0
27.2722 33.3116 -0.00127381 0 200 0
27.2757 33.3153 -0.00148612 0 200 0
27.2791 33.3189 -0.00169842 0 200 0
27.2826 33.3225 -0.00191072 0 200 0
27.286 33.3261 -0.00212302 0 200 0
27.2894 33.3298 -0.00233533 0 200 0
27.2929 33.3334 -0.00254763 0 200 0
27.2963 33.337 -0.00275993 0 200 0
27.2998 33.3406 -0.00297223 0 200 0
27.3032 33.3442 -0.00318454 0 200 0
27.3066 33.3479 -0.00339684 0 200 0
27.3101 33.3515 -0.00360914 0 200 0
27.3135 33.3551 -0.00382144 0 200 0
27.3169 33.3587 -0.00403375 0 200 0
27.3204 33.3624 -0.00424605 0 200 0
27.3238 33.366 -0.00445835 0 200 0
27.3273 33.3696 -0.00467065 0 200 0
27.3307 33.3732 -0.00488295 0 200 0
27.3342 33.3768 -0.00509526 0 200 0
27.3376 33.3805 -0.00530756 0 200 0
27.341 33.3841 -0.00551986 0 200 0
27.3445 33.3877 -0.00573216 0 200 0
27.3479 33.3913 -0.00594447 0 200 0
27.3514 33.395 -0.00615677 0 200 0
27.3548 33.3986 -0.00636907 0 200 0
27.3582 33.4022 -0.00658137 0 200 0
27.3617 33.4058 -0.00679368 0 200 0
27.3651 33.4094 -0.00700598 0 200 0
27.3686 33.4131 -0.00721828 0 200 0
27.372 33.4167 -0.00743058 0 200 0
27.3754 33.4203 -0.00764289 0 200 0
27.3789 33.4239 -0.00785519 0 200 0
27.3823 33.4276 -0.00806749 0 200 0
27.3858 33.4312 -0.00827979 0 200 0
27.3892 33.4348 -0.0084921 0 200 0
27.3926 33.4384 -0.0087044 0 200 0
27.3961 33.442 -0.0089167 0 200 0
27.3995 33.4457 -0.009129 0 200 0
27.403 33.4493 -0.0093413 0 200 0
27.4064 33.4529 -0.00955361 0 200 0
27.4098 33.4565 -0.00976591 0 200 0
27.4133 33.4602 -0.00997821 0 200 0
27.4167 33.4638 -0.0101905 0 200 0
27.4202 33.4674 -0.0104028 0 200 0
27.4236 33.471 -0.0106151 0 200 0
27.427 33.4746 -0.0108274 0 200 0
27.4305 33.4783 -0.0110397 0 200 0
27.4339 33.4819 -0.011252 0 200 0
27.4374 33.4855 -0.0114643 0 200 0
27.4408 33.4891 -0.0116766 0 200 0
27.4442 33.4928 -0.0118889 0 200 0
27.4477 33.4964 -0.0121012 0 200 0
27.4511 33.5 -0.0123135 0 200 0
27.4546 33.5036 -0.0125258 0 200 0
27.458 33.5072 -0.0127381 0 200 0
27.4614 33.5109 -0.0129504 0 200 0
27.4649 33.5145 -0.0131627 0 200 0
27.4683 33.5181 -0.013375 0 200 0
27.4718 33.5217 -0.0135874 0 200 0
27.4752 33.5254 -0.0137997 0 200 0
27.4786 33.529 -0.014012 0 200 0
27.4821 33.5326 -0.0142243 0 200 0
27.4855 33.5362 -0.0144366 0 200 0
27.489 33.5398 -0.0146489 0 200 0
27.4924 33.5435 -0.0148612 0 200 0
27.4958 33.5471 -0.0150735 0 200 0
27.4993 33.5507 -0.0152858 0 200 0
27.5027 33.5543 -0.0154981 0 200 0
27.5062 33.558 -0.0157104 0 200 0
27.5096 33.5616 -0.0159227 0 200 0
27.513 33.5652 -0.016135 0 200 0
27.5165 33.5688 -0.0163473 0 200 0
27.5199 33.5724 -0.0165596 0 200 0
27.5234 33.5761 -0.0167719 0 200 0
27.5268 33.5797 -0.0169842 0 200 0
27.5302 33.5833 -0.0171965 0 200 0
27.5337 33.5869 -0.0174088 0 200 0
27.5371 33.5906 -0.0176211 0 200 0
27.5406 33.5942 -0.0178334 0 200 0
27.544 33.5978 -0.0180457 0 200 0
27.5474 33.6014 -0.018258 0 200 0
27.5509 33.605 -0.0184703 0 200 0
27.5543 33.6087 -0.0186826 0 200 0
27.5578 33.6123 -0.0188949 0 200 0
27.5612 33.6159 -0.0191072 0 200 0
27.5646 33.6195 -0.0193195 0 200 0
27.5681 33.6232 -0.0195318 0 200 0
27.5715 33.6268 -0.0197441 0 200 0
27.575 33.6304 -0.0199564 0 200 0
27.5784 33.634 -0.0201687 0 200 0
27.5818 33.6376 -0.020381 0 200 0
27.5853 33.6413 -0.0205933 0 200 0
27.5887 33.6449 -0.0208056 0 200 0
27.5922 33.6485 -0.0210179 0 200 0
28.4119 34.1008 0 0 200 0
28.4163 34.1032 -0.00021774 0 200 0
28.4207 34.1056 -0.00043548 0 200 0
28.4251 34.1079 -0.00065322 0 200 0
28.4295 34.1103 -0.00087096 0 200 0
28.4339 34.1127 -0.0010887 0 200 0
28.4383 34.1151 -0.00130644 0 200 0
28.4426 34.1175 -0.00152418 0 200 0
28.447 34.1198 -0.00174192 0 200 0
28.4514 34.1222 -0.00195966 0 200 0
28.4558 34.1246 -0.0021774 0 200 0
28.4602 34.127 -0.00239514 0 200 0
28.4646 34.1294 -0.00261288 0 200 0
28.469 34.1317 -0.00283062 0 200 0
28.4734 34.1341 -0.00304836 0 200 0
28.4778 34.1365 -0.0032661 0 200 0
28.4822 34.1389 -0.00348384 0 200 0
28.4866 34.1413 -0.00370158 0 200 0
28.491 34.1436 -0.00391932 0 200 0
28.4953 34.146 -0.00413706 0 200 0
28.4997 34.1484 -0.0043548 0 200 0
28.5041 34.1508 -0.00457254 0 200 0
28.5085 34.1532 -0.00479028 0 200 0
28.5129 34.1555 -0.00500802 0 200 0
28.5173 34.1579 -0.00522576 0 200 0
28.5217 34.1603 -0.0054435 0 200 0
28.5261 34.1627 -0.00566124 0 200 0
28.5305 34.1651 -0.00587898 0 200 0
28.5349 34.1674 -0.00609672 0 200 0
28.5393 34.1698 -0.00631446 0 200 0
28.5437 34.1722 -0.0065322 0 200 0
28.548 34.1746 -0.00674994 0 200 0
28.5524 34.177 -0.00696768 0 200 0
28.5568 34.1793 -0.00718542 0 200 0
28.5612 34.1817 -0.00740316 0 200 0
28.5656 34.1841 -0.0076209 0 200 0
28.57 34.1865 -0.00783864 0 200 0
28.5744 34.1889 -0.00805638 0 200 0
28.5788 34.1912 -0.00827412 0 200 0
28.5832 34.1936 -0.00849186 0 200 0
28.5876 34.196 -0.0087096 0 200 0
28.592 34.1984 -0.00892734 0 200 0
28.5964 34.2008 -0.00914508 0 200 0
28.6007 34.2032 -0.00936282 0 200 0
28.6051 34.2055 -0.00958056 0 200 0
28.6095 34.2079 -0.00979831 0 200 0
28.6139 34.2103 -0.010016 0 200 0
28.6183 34.2127 -0.0102338 0 200 0
28.6227 34.215 -0.0104515 0 200 0
28.6271 34.2174 -0.0106693 0 200 0
28.6315 34.2198 -0.010887 0 200 0
28.6359 34.2222 -0.0111047 0 200 0
28.6403 34.2246 -0.0113225 0 200 0
28.6447 34.227 -0.0115402 0 200 0
28.6491 34.2293 -0.011758 0 200 0
28.6534 34.2317 -0.0119757 0 200 0
28.6578 34.2341 -0.0121934 0 200 0
28.6622 34.2365 -0.0124112 0 200 0
28.6666 34.2389 -0.0126289 0 200 0
28.671 34.2412 -0.0128467 0 200 0
28.6754 34.2436 -0.0130644 0 200 0
28.6798 34.246 -0.0132821 0 200 0
28.6842 34.2484 -0.0134999 0 200 0
28.6886 34.2508 -0.0137176 0 200 0
28.693 34.2531 -0.0139354 0 200 0
28.6974 34.2555 -0.0141531 0 200 0
28.7018 34.2579 -0.0143708 0 200 0
28.7061 34.2603 -0.0145886 0 200 0
28.7105 34.2627 -0.0148063 0 200 0
28.7149 34.265 -0.0150241 0 200 0
28.7193 34.2674 -0.0152418 0 200 0
28.7237 34.2698 -0.0154595 0 200 0
28.7281 34.2722 -0.0156773 0 200 0
28.7325 34.2746 -0.015895 0 200 0
28.7369 34.2769 -0.0161128 0 200 0
28.7413 34.2793 -0.0163305 0 200 0
28.7457 34.2817 -0.0165482 0 200 0
28.7501 34.2841 -0.016766 0 200 0
28.7545 34.2865 -0.0169837 0 200 0
28.7588 34.2888 -0.0172015 0 200 0
28.7632 34.2912 -0.0174192 0 200 0
28.7676 34.2936 -0.0176369 0 200 0
28.772 34.296 -0.0178547 0 200 0
28.7764 34.2984 -0.0180724 0 200 0
28.7808 34.3007 -0.0182902 0 200 0
28.7852 34.3031 -0.0185079 0 200 0
28.7896 34.3055 -0.0187256 0 200 0
28.794 34.3079 -0.0189434 0 200 0
28.7984 34.3103 -0.0191611 0 200 0
28.8028 34.3126 -0.0193789 0 200 0
28.8072 34.315 -0.0195966 0 200 0
28.8115 34.3174 -0.0198143 0 200 0
28.8159 34.3198 -0.0200321 0 200 0
28.8203 34.3222 -0.0202498 0 200 0
28.8247 34.3245 -0.0204676 0 200 0
28.8291 34.3269 -0.0206853 0 200 0
28.8335 34.3293 -0.0209031 0 200 0
28.8379 34.3317 -0.0211208 0 200 0
28.8423 34.3341 -0.0213385 0 200 0
28.8467 34.3364 -0.0215563 0 200 0
29.6867 34.791 0 0 200 0
29.6915 34.7926 -0.000311515 0 200 0
29.6962 34.7941 -0.00062303 0 200 0
29.7009 34.7957 -0.000934545 0 200 0
29.7057 34.7973 -0.00124606 0 200 0
29.7104 34.7989 -0.00155758 0 200 0
29.7151 34.8004 -0.00186909 0 200 0
29.7199 34.802 -0.00218061 0 200 0
29.7246 34.8036 -0.00249212 0 200 0
29.7293 34.8051 -0.00280364 0 200 0
29.7341 34.8067 -0.00311515 0 200 0
29.7388 34.8083 -0.00342667 0 200 0
29.7436 34.8098 -0.00373818 0 200 0
29.7483 34.8114 -0.0040497 0 200 0
29.753 34.813 -0.00436121 0 200 0
29.7578 34.8146 -0.00467273 0 200 0
29.7625 34.8161 -0.00498424 0 200 0
29.7672 34.8177 -0.00529576 0 200 0
29.772 34.8193 -0.00560727 0 200 0
29.7767 34.8208 -0.00591879 0 200 0
29.7814 34.8224 -0.0062303 0 200 0
29.7862 34.824 -0.00654182 0 200 0
29.7909 34.8256 -0.00685333 0 200 0
29.7957 34.8271 -0.00716485 0 200 0
29.8004 34.8287 -0.00747636 0 200 0
29.8051 34.8303 -0.00778788 0 200 0
29.8099 34.8318 -0.00809939 0 200 0
29.8146 34.8334 -0.00841091 0 200 0
29.8193 34.835 -0.00872242 0 200 0
29.8241 34.8366 -0.00903394 0 200 0
29.8288 34.8381 -0.00934545 0 200 0
29.8336 34.8397 -0.00965697 0 200 0
29.8383 34.8413 -0.00996848 0 200 0
29.843 34.8428 -0.01028 0 200 0
29.8478 34.8444 -0.0105915 0 200 0
29.8525 34.846 -0.010903 0 200 0
29.8572 34.8475 -0.0112145 0 200 0
29.862 34.8491 -0.0115261 0 200 0
29.8667 34.8507 -0.0118376 0 200 0
29.8714 34.8523 -0.0121491 0 200 0
29.8762 34.8538 -0.0124606 0 200 0
29.8809 34.8554 -0.0127721 0 200 0
29.8857 34.857 -0.0130836 0 200 0
29.8904 34.8585 -0.0133951 0 200 0
29.8951 34.8601 -0.0137067 0 200 0
29.8999 34.8617 -0.0140182 0 200 0
29.9046 34.8633 -0.0143297 0 200 0
29.9093 34.8648 -0.0146412 0 200 0
29.9141 34.8664 -0.0149527 0 200 0
29.9188 34.868 -0.0152642 0 200 0
29.9235 34.8695 -0.0155758 0 200 0
29.9283 34.8711 -0.0158873 0 200 0
29.933 34.8727 -0.0161988 0 200 0
29.9378 34.8742 -0.0165103 0 200 0
29.9425 34.8758 -0.0168218 0 200 0
29.9472 34.8774 -0.0171333 0 200 0
29.952 34.879 -0.0174448 0 200 0
29.9567 34.8805 -0.0177564 0 200 0
29.9614 34.8821 -0.0180679 0 200 0
29.9662 34.8837 -0.0183794 0 200 0
29.9709 34.8852 -0.0186909 0 200 0
29.9757 34.8868 -0.0190024 0 200 0
29.9804 34.8884 -0.0193139 0 200 0
29.9851 34.89 -0.0196255 0 200 0
29.9899 34.8915 -0.019937 0 200 0
29.9946 34.8931 -0.0202485 0 200 0
29.9993 34.8947 -0.02056 0 200 0
30.0041 34.8962 -0.0208715 0 200 0
30.0088 34.8978 -0.021183 0 200 0
30.0135 34.8994 -0.0214945 0 200 0
30.0183 34.9009 -0.0218061 0 200 0
30.023 34.9025 -0.0221176 0 200 0
30.0278 34.9041 -0.0224291 0 200 0
30.0325 34.9057 -0.0227406 0 200 0
30.0372 34.9072 -0.0230521 0 200 0
30.042 34.9088 -0.0233636 0 200 0
30.0467 34.9104 -0.0236751 0 200 0
30.0514 34.9119 -0.0239867 0 200 0
30.0562 34.9135 -0.0242982 0 200 0
30.0609 34.9151 -0.0246097 0 200 0
30.0656 34.9167 -0.0249212 0 200 0
30.0704 34.9182 -0.0252327 0 200 0
30.0751 34.9198 -0.0255442 0 200 0
30.0799 34.9214 -0.0258558 0 200 0
30.0846 34.9229 -0.0261673 0 200 0
30.0893 34.9245 -0.0264788 0 200 0
30.0941 34.9261 -0.0267903 0 200 0
30.0988 34.9277 -0.0271018 0 200 0
30.1035 34.9292 -0.0274133 0 200 0
30.1083 34.9308 -0.0277248 0 200 0
30.113 34.9324 -0.0280364 0 200 0
30.1178 34.9339 -0.0283479 0 200 0
30.1225 34.9355 -0.0286594 0 200 0
30.1272 34.9371 -0.0289709 0 200 0
30.132 34.9386 -0.0292824 0 200 0
30.1367 34.9402 -0.0295939 0 200 0
30.1414 34.9418 -0.0299054 0 200 0
30.1462 34.9434 -0.030217 0 200 0
30.1509 34.9449 -0.0305285 0 200 0
30.1556 34.9465 -0.03084 0 200 0
30.9166 35.3679 0 0 200 0
30.9211 35.37 -0.000388443 0 200 0
30.9256 35.3721 -0.000776887 0 200 0
30.9301 35.3742 -0.00116533 0 200 0
30.9346 35.3763 -0.00155377 0 200 0
30.9391 35.3784 -0.00194222 0 200 0
30.9437 35.3806 -0.00233066 0 200 0
30.9482 35.3827 -0.0027191 0 200 0
30.9527 35.3848 -0.00310755 0 200 0
30.9572 35.3869 -0.00349599 0 200 0
30.9617 35.389 -0.00388443 0 200 0
30.9662 35.3911 -0.00427288 0 200 0
30.9708 35.3932 -0.00466132 0 200 0
30.9753 35.3953 -0.00504976 0 200 0
30.9798 35.3974 -0.00543821 0 200 0
30.9843 35.3995 -0.00582665 0 200 0
30.9888 35.4016 -0.00621509 0 200 0
30.9934 35.4037 -0.00660354 0 200 0
30.9979 35.4058 -0.00699198 0 200 0
31.0024 35.408 -0.00738042 0 200 0
31.0069 35.4101 -0.00776887 0 200 0
31.0114 35.4122 -0.00815731 0 200 0
31.0159 35.4143 -0.00854575 0 200 0
31.0205 35.4164 -0.0089342 0 200 0
31.025 35.4185 -0.00932264 0 200 0
31.0295 35.4206 -0.00971108 0 200 0
31.034 35.4227 -0.0100995 0 200 0
31.0385 35.4248 -0.010488 0 200 0
31.043 35.4269 -0.0108764 0 200 0
31.0476 35.429 -0.0112649 0 200 0
31.0521 35.4311 -0.0116533 0 200 0
31.0566 35.4333 -0.0120417 0 200 0
31.0611 35.4354 -0.0124302 0 200 0
31.0656 35.4375 -0.0128186 0 200 0
31.0701 35.4396 -0.0132071 0 200 0
31.0747 35.4417 -0.0135955 0 200 0
31.0792 35.4438 -0.013984 0 200 0
31.0837 35.4459 -0.0143724 0 200 0
31.0882 35.448 -0.0147608 0 200 0
31.0927 35.4501 -0.0151493 0 200 0
31.0972 35.4522 -0.0155377 0 200 0
31.1018 35.4543 -0.0159262 0 200 0
31.1063 35.4564 -0.0163146 0 200 0
31.1108 35.4585 -0.0167031 0 200 0
31.1153 35.4607 -0.0170915 0 200 0
31.1198 35.4628 -0.01748 0 200 0
31.1244 35.4649 -0.0178684 0 200 0
31.1289 35.467 -0.0182568 0 200 0
31.1334 35.4691 -0.0186453 0 200 0
31.1379 35.4712 -0.0190337 0 200 0
31.1424 35.4733 -0.0194222 0 200 0
31.1469 35.4754 -0.0198106 0 200 0
31.1515 35.4775 -0.0201991 0 200 0
31.156 35.4796 -0.0205875 0 200 0
31.1605 35.4817 -0.0209759 0 200 0
31.165 35.4838 -0.0213644 0 200 0
31.1695 35.486 -0.0217528 0 200 0
31.174 35.4881 -0.0221413 0 200 0
31.1786 35.4902 -0.0225297 0 200 0
31.1831 35.4923 -0.0229182 0 200 0
31.1876 35.4944 -0.0233066 0 200 0
31.1921 35.4965 -0.023695 0 200 0
31.1966 35.4986 -0.0240835 0 200 0
31.2011 35.5007 -0.0244719 0 200 0
31.2057 35.5028 -0.0248604 0 200 0
31.2102 35.5049 -0.0252488 0 200 0
31.2147 35.507 -0.0256373 0 200 0
31.2192 35.5091 -0.0260257 0 200 0
31.2237 35.5113 -0.0264141 0 200 0
31.2282 35.5134 -0.0268026 0 200 0
31.2328 35.5155 -0.027191 0 200 0
31.2373 35.5176 -0.0275795 0 200 0
31.2418 35.5197 -0.0279679 0 200 0
31.2463 35.5218 -0.0283564 0 200 0
31.2508 35.5239 -0.0287448 0 200 0
31.2554 35.526 -0.0291333 0 200 0
31.2599 35.5281 -0.0295217 0 200 0
31.2644 35.5302 -0.0299101 0 200 0
31.2689 35.5323 -0.0302986 0 200 0
31.2734 35.5344 -0.030687 0 200 0
31.2779 35.5365 -0.0310755 0 200 0
31.2825 35.5387 -0.0314639 0 200 0
31.287 35.5408 -0.0318524 0 200 0
31.2915 35.5429 -0.0322408 0 200 0
31.296 35.545 -0.0326292 0 200 0
31.3005 35.5471 -0.0330177 0 200 0
31.305 35.5492 -0.0334061 0 200 0
31.3096 35.5513 -0.0337946 0 200 0
31.3141 35.5534 -0.034183 0 200 0
31.3186 35.5555 -0.0345715 0 200 0
31.3231 35.5576 -0.0349599 0 200 0
31.3276 35.5597 -0.0353483 0 200 0
31.3321 35.5618 -0.0357368 0 200 0
31.3367 35.564 -0.0361252 0 200 0
31.3412 35.5661 -0.0365137 0 200 0
31.3457 35.5682 -0.0369021 0 200 0
31.3502 35.5703 -0.0372906 0 200 0
31.3547 35.5724 -0.037679 0 200 0
31.3592 35.5745 -0.0380674 0 200 0
31.3638 35.5766 -0.0384559 0 200 0
31.9089 35.6818 0 0 200 0
31.9115 35.6861 -0.00029562 0 200 0
31.914 35.6903 -0.00059124 0 200 0
31.9166 35.6946 -0.00088686 0 200 0
31.9191 35.6989 -0.00118248 0 200 0
31.9216 35.7032 -0.0014781 0 200 0
31.9242 35.7075 -0.00177372 0 200 0
31.9267 35.7118 -0.00206934 0 200 0
31.9293 35.7161 -0.00236496 0 200 0
31.9318 35.7204 -0.00266058 0 200 0
31.9344 35.7247 -0.0029562 0 200 0
31.9369 35.729 -0.00325182 0 200 0
31.9395 35.7333 -0.00354744 0 200 0
31.942 35.7376 -0.00384306 0 200 0
31.9446 35.7418 -0.00413868 0 200 0
31.9471 35.7461 -0.0044343 0 200 0
31.9497 35.7504 -0.00472992 0 200 0
31.9522 35.7547 -0.00502554 0 200 0
31.9548 35.759 -0.00532116 0 200 0
31.9573 35.7633 -0.00561678 0 200 0
31.9599 35.7676 -0.0059124 0 200 0
31.9624 35.7719 -0.00620802 0 200 0
31.965 35.7762 -0.00650364 0 200 0
31.9675 35.7805 -0.00679926 0 200 0
31.9701 35.7848 -0.00709488 0 200 0
31.9726 35.7891 -0.0073905 0 200 0
31.9752 35.7933 -0.00768612 0 200 0
31.9777 35.7976 -0.00798174 0 200 0
31.9803 35.8019 -0.00827736 0 200 0
31.9828 35.8062 -0.00857298 0 200 0
31.9854 35.8105 -0.0088686 0 200 0
31.9879 35.8148 -0.00916422 0 200 0
31.9905 35.8191 -0.00945984 0 200 0
31.993 35.8234 -0.00975546 0 200 0
31.9956 35.8277 -0.0100511 0 200 0
31.9981 35.832 -0.0103467 0 200 0
32.0007 35.8363 -0.0106423 0 200 0
32.0032 35.8405 -0.0109379 0 200 0
32.0058 35.8448 -0.0112336 0 200 0
32.0083 35.8491 -0.0115292 0 200 0
32.0109 35.8534 -0.0118248 0 200 0
32.0134 35.8577 -0.0121204 0 200 0
32.016 35.862 -0.012416 0 200 0
32.0185 35.8663 -0.0127117 0 200 0
32.021 35.8706 -0.0130073 0 200 0
32.0236 35.8749 -0.0133029 0 200 0
32.0261 35.8792 -0.0135985 0 200 0
32.0287 35.8835 -0.0138941 0 200 0
32.0312 35.8878 -0.0141898 0 200 0
32.0338 35.892 -0.0144854 0 200 0
32.0363 35.8963 -0.014781 0 200 0
32.0389 35.9006 -0.0150766 0 200 0
32.0414 35.9049 -0.0153722 0 200 0
32.044 35.9092 -0.0156679 0 200 0
32.0465 35.9135 -0.0159635 0 200 0
32.0491 35.9178 -0.0162591 0 200 0
32.0516 35.9221 -0.0165547 0 200 0
32.0542 35.9264 -0.0168503 0 200 0
32.0567 35.9307 -0.017146 0 200 0
32.0593 35.935 -0.0174416 0 200 0
32.0618 35.9393 -0.0177372 0 200 0
32.0644 35.9435 -0.0180328 0 200 0
32.0669 35.9478 -0.0183284 0 200 0
32.0695 35.9521 -0.0186241 0 200 0
32.072 35.9564 -0.0189197 0 200 0
32.0746 35.9607 -0.0192153 0 200 0
32.0771 35.965 -0.0195109 0 200 0
32.0797 35.9693 -0.0198065 0 200 0
32.0822 35.9736 -0.0201022 0 200 0
32.0848 35.9779 -0.0203978 0 200 0
32.0873 35.9822 -0.0206934 0 200 0
32.0899 35.9865 -0.020989 0 200 0
32.0924 35.9907 -0.0212846 0 200 0
32.095 35.995 -0.0215803 0 200 0
32.0975 35.9993 -0.0218759 0 200 0
32.1001 36.0036 -0.0221715 0 200 0
32.1026 36.0079 -0.0224671 0 200 0
32.1052 36.0122 -0.0227627 0 200 0
32.1077 36.0165 -0.0230584 0 200 0
32.1103 36.0208 -0.023354 0 200 0
32.1128 36.0251 -0.0236496 0 200 0
32.1154 36.0294 -0.0239452 0 200 0
32.1179 36.0337 -0.0242408 0 200 0
32.1204 36.038 -0.0245365 0 200 0
32.123 36.0422 -0.0248321 0 200 0
32.1255 36.0465 -0.0251277 0 200 0
32.1281 36.0508 -0.0254233 0 200 0
32.1306 36.0551 -0.0257189 0 200 0
32.1332 36.0594 -0.0260146 0 200 0
32.1357 36.0637 -0.0263102 0 200 0
32.1383 36.068 -0.0266058 0 200 0
32.1408 36.0723 -0.0269014 0 200 0
32.1434 36.0766 -0.027197 0 200 0
32.1459 36.0809 -0.0274927 0 200 0
32.1485 36.0852 -0.0277883 0 200 0
32.151 36.0895 -0.0280839 0 200 0
32.1536 36.0937 -0.0283795 0 200 0
32.1561 36.098 -0.0286751 0 200 0
32.1587 36.1023 -0.0289708 0 200 0
32.1612 36.1066 -0.0292664 0 200 0
32.8039 35.6314 0 0 200 0
32.8036 35.6364 -0.000374452 0 200 0
32.8033 35.6414 -0.000748904 0 200 0
32.8029 35.6463 -0.00112336 0 200 0
32.8026 35.6513 -0.00149781 0 200 0
32.8023 35.6563 -0.00187226 0 200 0
32.8019 35.6613 -0.00224671 0 200 0
32.8016 35.6662 -0.00262116 0 200 0
32.8013 35.6712 -0.00299562 0 200 0
32.801 35.6762 -0.00337007 0 200 0
32.8006 35.6812 -0.00374452 0 200 0
32.8003 35.6861 -0.00411897 0 200 0
32.8 35.6911 -0.00449342 0 200 0
32.7997 35.6961 -0.00486788 0 200 0
32.7993 35.7011 -0.00524233 0 200 0
32.799 35.706 -0.00561678 0 200 0
32.7987 35.711 -0.00599123 0 200 0
32.7983 35.716 -0.00636568 0 200 0
32.798 35.721 -0.00674014 0 200 0
32.7977 35.7259 -0.00711459 0 200 0
32.7974 35.7309 -0.00748904 0 200 0
32.797 35.7359 -0.00786349 0 200 0
32.7967 35.7409 -0.00823794 0 200 0
32.7964 35.7458 -0.0086124 0 200 0
32.7961 35.7508 -0.00898685 0 200 0
32.7957 35.7558 -0.0093613 0 200 0
32.7954 35.7608 -0.00973575 0 200 0
32.7951 35.7658 -0.0101102 0 200 0
32.7947 35.7707 -0.0104847 0 200 0
32.7944 35.7757 -0.0108591 0 200 0
32.7941 35.7807 -0.0112336 0 200 0
32.7938 35.7856 -0.011608 0 200 0
32.7934 35.7906 -0.0119825 0 200 0
32.7931 35.7956 -0.0123569 0 200 0
32.7928 35.8006 -0.0127314 0 200 0
32.7924 35.8055 -0.0131058 0 200 0
32.7921 35.8105 -0.0134803 0 200 0
32.7918 35.8155 -0.0138547 0 200 0
32.7915 35.8205 -0.0142292 0 200 0
32.7911 35.8255 -0.0146036 0 200 0
32.7908 35.8304 -0.0149781 0 200 0
32.7905 35.8354 -0.0153525 0 200 0
32.7902 35.8404 -0.015727 0 200 0
32.7898 35.8454 -0.0161014 0 200 0
32.7895 35.8503 -0.0164759 0 200 0
32.7892 35.8553 -0.0168503 0 200 0
32.7888 35.8603 -0.0172248 0 200 0
32.7885 35.8653 -0.0175992 0 200 0
32.7882 35.8702 -0.0179737 0 200 0
32.7879 35.8752 -0.0183481 0 200 0
32.7875 35.8802 -0.0187226 0 200 0
32.7872 35.8852 -0.0190971 0 200 0
32.7869 35.8901 -0.0194715 0 200 0
32.7866 35.8951 -0.019846 0 200 0
32.7862 35.9001 -0.0202204 0 200 0
32.7859 35.9051 -0.0205949 0 200 0
32.7856 35.91 -0.0209693 0 200 0
32.7852 35.915 -0.0213438 0 200 0
32.7849 35.92 -0.0217182 0 200 0
32.7846 35.925 -0.0220927 0 200 0
32.7843 35.9299 -0.0224671 0 200 0
32.7839 35.9349 -0.0228416 0 200 0
32.7836 35.9399 -0.023216 0 200 0
32.7833 35.9449 -0.0235905 0 200 0
32.7829 35.9498 -0.0239649 0 200 0
32.7826 35.9548 -0.0243394 0 200 0
32.7823 35.9598 -0.0247138 0 200 0
32.782 35.9648 -0.0250883 0 200 0
32.7816 35.9697 -0.0254627 0 200 0
32.7813 35.9747 -0.0258372 0 200 0
32.781 35.9797 -0.0262116 0 200 0
32.7807 35.9847 -0.0265861 0 200 0
32.7803 35.9896 -0.0269605 0 200 0
32.78 35.9946 -0.027335 0 200 0
32.7797 35.9996 -0.0277094 0 200 0
32.7793 36.0046 -0.0280839 0 200 0
32.779 36.0095 -0.0284584 0 200 0
32.7787 36.0145 -0.0288328 0 200 0
32.7784 36.0195 -0.0292073 0 200 0
32.778 36.0245 -0.0295817 0 200 0
32.7777 36.0294 -0.0299562 0 200 0
32.7774 36.0344 -0.0303306 0 200 0
32.7771 36.0394 -0.0307051 0 200 0
32.7767 36.0444 -0.0310795 0 200 0
32.7764 36.0493 -0.031454 0 200 0
32.7761 36.0543 -0.0318284 0 200 0
32.7757 36.0593 -0.0322029 0 200 0
32.7754 36.0643 -0.0325773 0 200 0
32.7751 36.0692 -0.0329518 0 200 0
32.7748 36.0742 -0.0333262 0 200 0
32.7744 36.0792 -0.0337007 0 200 0
32.7741 36.0842 -0.0340751 0 200 0
32.7738 36.0891 -0.0344496 0 200 0
32.7734 36.0941 -0.034824 0 200 0
32.7731 36.0991 -0.0351985 0 200 0
32.7728 36.1041 -0.0355729 0 200 0
32.7725 36.109 -0.0359474 0 200 0
32.7721 36.114 -0.0363218 0 200 0
32.7718 36.119 -0.0366963 0 200 0
32.7715 36.124 -0.0370708 0 200 0
33.6487 35.5381 0 0 200 0
33.647 35.5428 -0.000468037 0 200 0
33.6452 35.5475 -0.000936075 0 200 0
33.6435 35.5521 -0.00140411 0 200 0
33.6417 35.5568 -0.00187215 0 200 0
33.64 35.5614 -0.00234019 0 200 0
33.6382 35.5661 -0.00280822 0 200 0
33.6365 35.5708 -0.00327626 0 200 0
33.6347 35.5754 -0.0037443 0 200 0
33.633 35.5801 -0.00421234 0 200 0
33.6312 35.5847 -0.00468037 0 200 0
33.6295 35.5894 -0.00514841 0 200 0
33.6277 35.5941 -0.00561645 0 200 0
33.626 35.5987 -0.00608449 0 200 0
33.6242 35.6034 -0.00655252 0 200 0
33.6225 35.608 -0.00702056 0 200 0
33.6207 35.6127 -0.0074886 0 200 0
33.619 35.6174 -0.00795664 0 200 0
33.6172 35.622 -0.00842467 0 200 0
33.6155 35.6267 -0.00889271 0 200 0
33.6137 35.6313 -0.00936075 0 200 0
33.612 35.636 -0.00982879 0 200 0
33.6102 35.6407 -0.0102968 0 200 0
33.6085 35.6453 -0.0107649 0 200 0
33.6067 35.65 -0.0112329 0 200 0
33.605 35.6546 -0.0117009 0 200 0
33.6032 35.6593 -0.012169 0 200 0
33.6015 35.664 -0.012637 0 200 0
33.5997 35.6686 -0.013105 0 200 0
33.5979 35.6733 -0.0135731 0 200 0
33.5962 35.6779 -0.0140411 0 200 0
33.5944 35.6826 -0.0145092 0 200 0
33.5927 35.6873 -0.0149772 0 200 0
33.5909 35.6919 -0.0154452 0 200 0
33.5892 35.6966 -0.0159133 0 200 0
33.5874 35.7012 -0.0163813 0 200 0
33.5857 35.7059 -0.0168493 0 200 0
33.5839 35.7106 -0.0173174 0 200 0
33.5822 35.7152 -0.0177854 0 200 0
33.5804 35.7199 -0.0182535 0 200 0
33.5787 35.7245 -0.0187215 0 200 0
33.5769 35.7292 -0.0191895 0 200 0
33.5752 35.7339 -0.0196576 0 200 0
33.5734 35.7385 -0.0201256 0 200 0
33.5717 35.7432 -0.0205936 0 200 0
33.5699 35.7478 -0.0210617 0 200 0
33.5682 35.7525 -0.0215297 0 200 0
33.5664 35.7571 -0.0219978 0 200 0
33.5647 35.7618 -0.0224658 0 200 0
33.5629 35.7665 -0.0229338 0 200 0
33.5612 35.7711 -0.0234019 0 200 0
33.5594 35.7758 -0.0238699 0 200 0
33.5577 35.7804 -0.0243379 0 200 0
33.5559 35.7851 -0.024806 0 200 0
33.5542 35.7898 -0.025274 0 200 0
33.5524 35.7944 -0.0257421 0 200 0
33.5507 35.7991 -0.0262101 0 200 0
33.5489 35.8037 -0.0266781 0 200 0
33.5472 35.8084 -0.0271462 0 200 0
33.5454 35.8131 -0.0276142 0 200 0
33.5437 35.8177 -0.0280822 0 200 0
33.5419 35.8224 -0.0285503 0 200 0
33.5401 35.827 -0.0290183 0 200 0
33.5384 35.8317 -0.0294864 0 200 0
33.5366 35.8364 -0.0299544 0 200 0
33.5349 35.841 -0.0304224 0 200 0
33.5331 35.8457 -0.0308905 0 200 0
33.5314 35.8503 -0.0313585 0 200 0
33.5296 35.855 -0.0318265 0 200 0
33.5279 35.8597 -0.0322946 0 200 0
33.5261 35.8643 -0.0327626 0 200 0
33.5244 35.869 -0.0332307 0 200 0
33.5226 35.8736 -0.0336987 0 200 0
33.5209 35.8783 -0.0341667 0 200 0
33.5191 35.883 -0.0346348 0 200 0
33.5174 35.8876 -0.0351028 0 200 0
33.5156 35.8923 -0.0355708 0 200 0
33.5139 35.8969 -0.0360389 0 200 0
33.5121 35.9016 -0.0365069 0 200 0
33.5104 35.9063 -0.036975 0 200 0
33.5086 35.9109 -0.037443 0 200 0
33.5069 35.9156 -0.037911 0 200 0
33.5051 35.9202 -0.0383791 0 200 0
33.5034 35.9249 -0.0388471 0 200 0
33.5016 35.9296 -0.0393151 0 200 0
33.4999 35.9342 -0.0397832 0 200 0
33.4981 35.9389 -0.0402512 0 200 0
33.4964 35.9435 -0.0407193 0 200 0
33.4946 35.9482 -0.0411873 0 200 0
33.4929 35.9529 -0.0416553 0 200 0
33.4911 35.9575 -0.0421234 0 200 0
33.4894 35.9622 -0.0425914 0 200 0
33.4876 35.9668 -0.0430594 0 200 0
33.4859 35.9715 -0.0435275 0 200 0
33.4841 35.9762 -0.0439955 0 200 0
33.4823 35.9808 -0.0444636 0 200 0
33.4806 35.9855 -0.0449316 0 200 0
33.4788 35.9901 -0.0453996 0 200 0
33.4771 35.9948 -0.0458677 0 200 0
33.4753 35.9995 -0.0463357 0 200 0
34.0796 35.3711 0 0 200 0
34.0774 35.3756 -0.000583208 0 200 0
34.0752 35.38 -0.00116642 0 200 0
34.073 35.3845 -0.00174962 0 200 0
34.0709 35.389 -0.00233283 0 200 0
34.0687 35.3934 -0.00291604 0 200 0
34.0665 35.3979 -0.00349925 0 200 0
34.0643 35.4023 -0.00408245 0 200 0
34.0621 35.4068 -0.00466566 0 200 0
34.0599 35.4112 -0.00524887 0 200 0
34.0577 35.4157 -0.00583208 0 200 0
34.0555 35.4202 -0.00641529 0 200 0
34.0533 35.4246 -0.00699849 0 200 0
34.0511 35.4291 -0.0075817 0 200 0
34.049 35.4335 -0.00816491 0 200 0
34.0468 35.438 -0.00874812 0 200 0
34.0446 35.4424 -0.00933132 0 200 0
34.0424 35.4469 -0.00991453 0 200 0
34.0402 35.4514 -0.0104977 0 200 0
34.038 35.4558 -0.0110809 0 200 0
34.0358 35.4603 -0.0116642 0 200 0
34.0336 35.4647 -0.0122474 0 200 0
34.0314 35.4692 -0.0128306 0 200 0
34.0292 35.4736 -0.0134138 0 200 0
34.027 35.4781 -0.013997 0 200 0
34.0249 35.4826 -0.0145802 0 200 0
34.0227 35.487 -0.0151634 0 200 0
34.0205 35.4915 -0.0157466 0 200 0
34.0183 35.4959 -0.0163298 0 200 0
34.0161 35.5004 -0.016913 0 200 0
34.0139 35.5048 -0.0174962 0 200 0
34.0117 35.5093 -0.0180794 0 200 0
34.0095 35.5137 -0.0186626 0 200 0
34.0073 35.5182 -0.0192459 0 200 0
34.0051 35.5227 -0.0198291 0 200 0
34.0029 35.5271 -0.0204123 0 200 0
34.0008 35.5316 -0.0209955 0 200 0
33.9986 35.536 -0.0215787 0 200 0
33.9964 35.5405 -0.0221619 0 200 0
33.9942 35.5449 -0.0227451 0 200 0
33.992 35.5494 -0.0233283 0 200 0
33.9898 35.5539 -0.0239115 0 200 0
33.9876 35.5583 -0.0244947 0 200 0
33.9854 35.5628 -0.0250779 0 200 0
33.9832 35.5672 -0.0256611 0 200 0
33.981 35.5717 -0.0262443 0 200 0
33.9789 35.5761 -0.0268276 0 200 0
33.9767 35.5806 -0.0274108 0 200 0
33.9745 35.5851 -0.027994 0 200 0
33.9723 35.5895 -0.0285772 0 200 0
33.9701 35.594 -0.0291604 0 200 0
33.9679 35.5984 -0.0297436 0 200 0
33.9657 35.6029 -0.0303268 0 200 0
33.9635 35.6073 -0.03091 0 200 0
33.9613 35.6118 -0.0314932 0 200 0
33.9591 35.6163 -0.0320764 0 200 0
33.957 35.6207 -0.0326596 0 200 0
33.9548 35.6252 -0.0332428 0 200 0
33.9526 35.6296 -0.033826 0 200 0
33.9504 35.6341 -0.0344093 0 200 0
33.9482 35.6385 -0.0349925 0 200 0
33.946 35.643 -0.0355757 0 200 0
33.9438 35.6474 -0.0361589 0 200 0
33.9416 35.6519 -0.0367421 0 200 0
33.9394 35.6564 -0.0373253 0 200 0
33.9372 35.6608 -0.0379085 0 200 0
33.935 35.6653 -0.0384917 0 200 0
33.9329 35.6697 -0.0390749 0 200 0
33.9307 35.6742 -0.0396581 0 200 0
33.9285 35.6786 -0.0402413 0 200 0
33.9263 35.6831 -0.0408245 0 200 0
33.9241 35.6876 -0.0414077 0 200 0
33.9219 35.692 -0.041991 0 200 0
33.9197 35.6965 -0.0425742 0 200 0
33.9175 35.7009 -0.0431574 0 200 0
33.9153 35.7054 -0.0437406 0 200 0
33.9131 35.7098 -0.0443238 0 200 0
33.911 35.7143 -0.044907 0 200 0
33.9088 35.7188 -0.0454902 0 200 0
33.9066 35.7232 -0.0460734 0 200 0
33.9044 35.7277 -0.0466566 0 200 0
33.9022 35.7321 -0.0472398 0 200 0
33.9 35.7366 -0.047823 0 200 0
33.8978 35.741 -0.0484062 0 200 0
33.8956 35.7455 -0.0489894 0 200 0
33.8934 35.75 -0.0495727 0 200 0
33.8912 35.7544 -0.0501559 0 200 0
33.889 35.7589 -0.0507391 0 200 0
33.8869 35.7633 -0.0513223 0 200 0
33.8847 35.7678 -0.0519055 0 200 0
33.8825 35.7722 -0.0524887 0 200 0
33.8803 35.7767 -0.0530719 0 200 0
33.8781 35.7811 -0.0536551 0 200 0
33.8759 35.7856 -0.0542383 0 200 0
33.8737 35.7901 -0.0548215 0 200 0
33.8715 35.7945 -0.0554047 0 200 0
33.8693 35.799 -0.0559879 0 200 0
33.8671 35.8034 -0.0565712 0 200 0
33.865 35.8079 -0.0571544 0 200 0
33.8628 35.8123 -0.0577376 0 200 0
34.4165 35.3011 0 0 200 0
34.4141 35.3055 -0.000637417 0 200 0
34.4117 35.3098 -0.00127483 0 200 0
34.4093 35.3142 -0.00191225 0 200 0
34.407 35.3185 -0.00254967 0 200 0
34.4046 35.3229 -0.00318708 0 200 0
34.4022 35.3272 -0.0038245 0 200 0
34.3998 35.3316 -0.00446192 0 200 0
34.3974 35.3359 -0.00509934 0 200 0
34.395 35.3403 -0.00573675 0 200 0
34.3927 35.3446 -0.00637417 0 200 0
34.3903 35.3489 -0.00701159 0 200 0
34.3879 35.3533 -0.007649 0 200 0
34.3855 35.3576 -0.00828642 0 200 0
34.3831 35.362 -0.00892384 0 200 0
34.3807 35.3663 -0.00956125 0 200 0
34.3784 35.3707 -0.0101987 0 200 0
34.376 35.375 -0.0108361 0 200 0
34.3736 35.3794 -0.0114735 0 200 0
34.3712 35.3837 -0.0121109 0 200 0
34.3688 35.3881 -0.0127483 0 200 0
34.3664 35.3924 -0.0133858 0 200 0
34.3641 35.3968 -0.0140232 0 200 0
34.3617 35.4011 -0.0146606 0 200 0
34.3593 35.4055 -0.015298 0 200 0
34.3569 35.4098 -0.0159354 0 200 0
34.3545 35.4142 -0.0165728 0 200 0
34.3521 35.4185 -0.0172103 0 200 0
34.3498 35.4229 -0.0178477 0 200 0
34.3474 35.4272 -0.0184851 0 200 0
34.345 35.4316 -0.0191225 0 200 0
34.3426 35.4359 -0.0197599 0 200 0
34.3402 35.4403 -0.0203973 0 200 0
34.3378 35.4446 -0.0210348 0 200 0
34.3355 35.449 -0.0216722 0 200 0
34.3331 35.4533 -0.0223096 0 200 0
34.3307 35.4577 -0.022947 0 200 0
34.3283 35.462 -0.0235844 0 200 0
34.3259 35.4664 -0.0242218 0 200 0
34.3235 35.4707 -0.0248593 0 200 0
34.3212 35.4751 -0.0254967 0 200 0
34.3188 35.4794 -0.0261341 0 200 0
34.3164 35.4838 -0.0267715 0 200 0
34.314 35.4881 -0.0274089 0 200 0
34.3116 35.4925 -0.0280463 0 200 0
34.3092 35.4968 -0.0286838 0 200 0
34.3069 35.5012 -0.0293212 0 200 0
34.3045 35.5055 -0.0299586 0 200 0
34.3021 35.5099 -0.030596 0 200 0
34.2997 35.5142 -0.0312334 0 200 0
34.2973 35.5186 -0.0318708 0 200 0
34.2949 35.5229 -0.0325083 0 200 0
34.2926 35.5273 -0.0331457 0 200 0
34.2902 35.5316 -0.0337831 0 200 0
34.2878 35.536 -0.0344205 0 200 0
34.2854 35.5403 -0.0350579 0 200 0
34.283 35.5447 -0.0356953 0 200 0
34.2806 35.549 -0.0363328 0 200 0
34.2783 35.5534 -0.0369702 0 200 0
34.2759 35.5577 -0.0376076 0 200 0
34.2735 35.562 -0.038245 0 200 0
34.2711 35.5664 -0.0388824 0 200 0
34.2687 35.5707 -0.0395199 0 200 0
34.2663 35.5751 -0.0401573 0 200 0
34.264 35.5794 -0.0407947 0 200 0
34.2616 35.5838 -0.0414321 0 200 0
34.2592 35.5881 -0.0420695 0 200 0
34.2568 35.5925 -0.0427069 0 200 0
34.2544 35.5968 -0.0433444 0 200 0
34.252 35.6012 -0.0439818 0 200 0
34.2497 35.6055 -0.0446192 0 200 0
34.2473 35.6099 -0.0452566 0 200 0
34.2449 35.6142 -0.045894 0 200 0
34.2425 35.6186 -0.0465314 0 200 0
34.2401 35.6229 -0.0471689 0 200 0
34.2377 35.6273 -0.0478063 0 200 0
34.2354 35.6316 -0.0484437 0 200 0
34.233 35.636 -0.0490811 0 200 0
34.2306 35.6403 -0.0497185 0 200 0
34.2282 35.6447 -0.0503559 0 200 0
34.2258 35.649 -0.0509934 0 200 0
34.2234 35.6534 -0.0516308 0 200 0
34.2211 35.6577 -0.0522682 0 200 0
34.2187 35.6621 -0.0529056 0 200 0
34.2163 35.6664 -0.053543 0 200 0
34.2139 35.6708 -0.0541804 0 200 0
34.2115 35.6751 -0.0548179 0 200 0
34.2091 35.6795 -0.0554553 0 200 0
34.2068 35.6838 -0.0560927 0 200 0
34.2044 35.6882 -0.0567301 0 200 0
34.202 35.6925 -0.0573675 0 200 0
34.1996 35.6969 -0.0580049 0 200 0
