ply
format ascii 1.0
element vertex 1398
property float x
property float y
property float z
property uchar red
property uchar green
property uchar blue
element face 0
property list uchar int vertex_indices
end_header
29.2446 13.6528 0.0244771 0 200 0
29.2442 13.6578 0.0248424 0 200 0
29.2439 13.6627 0.0252078 0 200 0
29.2436 13.6677 0.0255731 0 200 0
29.2433 13.6727 0.0259384 0 200 0
29.2429 13.6777 0.0263038 0 200 0
29.2426 13.6827 0.0266691 0 200 0
29.2423 13.6876 0.0270344 0 200 0
29.2419 13.6926 0.0273997 0 200 0
29.2416 13.6976 0.0277651 0 200 0
29.2413 13.7026 0.0281304 0 200 0
29.241 13.7075 0.0284957 0 200 0
29.2406 13.7125 0.0288611 0 200 0
29.2403 13.7175 0.0292264 0 200 0
29.24 13.7225 0.0295917 0 200 0
29.2397 13.7274 0.0299571 0 200 0
29.2393 13.7324 0.0303224 0 200 0
29.239 13.7374 0.0306877 0 200 0
29.2387 13.7424 0.031053 0 200 0
29.2383 13.7473 0.0314184 0 200 0
29.238 13.7523 0.0317837 0 200 0
29.2377 13.7573 0.032149 0 200 0
29.2374 13.7623 0.0325144 0 200 0
29.237 13.7672 0.0328797 0 200 0
29.2367 13.7722 0.033245 0 200 0
29.2364 13.7772 0.0336104 0 200 0
29.2361 13.7822 0.0339757 0 200 0
29.2357 13.7871 0.034341 0 200 0
29.2354 13.7921 0.0347063 0 200 0
29.2351 13.7971 0.0350717 0 200 0
29.2348 13.8021 0.035437 0 200 0
29.2344 13.807 0.0358023 0 200 0
29.2341 13.812 0.0361677 0 200 0
30.3058 13.8443 0 0 200 0
30.3069 13.8491 0.00015968 0 200 0
30.3079 13.854 0.000319359 0 200 0
30.309 13.8589 0.000479039 0 200 0
30.3101 13.8638 0.000638719 0 200 0
30.3111 13.8687 0.000798399 0 200 0
30.3122 13.8736 0.000958078 0 200 0
30.3132 13.8784 0.00111776 0 200 0
30.3143 13.8833 0.00127744 0 200 0
30.3154 13.8882 0.00143712 0 200 0
30.3164 13.8931 0.0015968 0 200 0
30.3175 13.898 0.00175648 0 200 0
30.3186 13.9029 0.00191616 0 200 0
30.3196 13.9077 0.00207584 0 200 0
30.3207 13.9126 0.00223552 0 200 0
30.3217 13.9175 0.0023952 0 200 0
30.3228 13.9224 0.00255488 0 200 0
30.3239 13.9273 0.00271456 0 200 0
30.3249 13.9321 0.00287424 0 200 0
30.326 13.937 0.00303391 0 200 0
30.3271 13.9419 0.00319359 0 200 0
30.3281 13.9468 0.00335327 0 200 0
30.3292 13.9517 0.00351295 0 200 0
30.3302 13.9566 0.00367263 0 200 0
30.3313 13.9614 0.00383231 0 200 0
30.3324 13.9663 0.00399199 0 200 0
30.3334 13.9712 0.00415167 0 200 0
30.3345 13.9761 0.00431135 0 200 0
30.3356 13.981 0.00447103 0 200 0
30.3366 13.9859 0.00463071 0 200 0
30.3377 13.9907 0.00479039 0 200 0
30.3388 13.9956 0.00495007 0 200 0
30.3398 14.0005 0.00510975 0 200 0
30.3409 14.0054 0.00526943 0 200 0
30.3419 14.0103 0.00542911 0 200 0
30.343 14.0152 0.00558879 0 200 0
30.3441 14.02 0.00574847 0 200 0
30.3451 14.0249 0.00590815 0 200 0
30.3462 14.0298 0.00606783 0 200 0
30.3473 14.0347 0.00622751 0 200 0
30.3483 14.0396 0.00638719 0 200 0
30.3494 14.0445 0.00654687 0 200 0
30.3504 14.0493 0.00670655 0 200 0
30.3515 14.0542 0.00686623 0 200 0
30.3526 14.0591 0.00702591 0 200 0
30.3536 14.064 0.00718559 0 200 0
30.3547 14.0689 0.00734527 0 200 0
30.3558 14.0738 0.00750495 0 200 0
30.3568 14.0786 0.00766463 0 200 0
30.3579 14.0835 0.00782431 0 200 0
30.3589 14.0884 0.00798399 0 200 0
30.36 14.0933 0.00814367 0 200 0
30.3611 14.0982 0.00830335 0 200 0
30.3621 14.1031 0.00846303 0 200 0
30.3632 14.1079 0.00862271 0 200 0
30.3643 14.1128 0.00878238 0 200 0
30.3653 14.1177 0.00894206 0 200 0
30.3664 14.1226 0.00910174 0 200 0
30.3675 14.1275 0.00926142 0 200 0
30.3685 14.1324 0.0094211 0 200 0
30.3696 14.1372 0.00958078 0 200 0
30.3706 14.1421 0.00974046 0 200 0
30.3717 14.147 0.00990014 0 200 0
30.3728 14.1519 0.0100598 0 200 0
30.3738 14.1568 0.0102195 0 200 0
30.3749 14.1617 0.0103792 0 200 0
30.376 14.1665 0.0105389 0 200 0
30.377 14.1714 0.0106985 0 200 0
30.3781 14.1763 0.0108582 0 200 0
30.3791 14.1812 0.0110179 0 200 0
30.3802 14.1861 0.0111776 0 200 0
30.3813 14.191 0.0113373 0 200 0
30.3823 14.1958 0.0114969 0 200 0
30.3834 14.2007 0.0116566 0 200 0
30.3845 14.2056 0.0118163 0 200 0
30.3855 14.2105 0.011976 0 200 0
30.3866 14.2154 0.0121357 0 200 0
30.3876 14.2203 0.0122953 0 200 0
30.3887 14.2251 0.012455 0 200 0
30.3898 14.23 0.0126147 0 200 0
30.3908 14.2349 0.0127744 0 200 0
30.3919 14.2398 0.0129341 0 200 0
30.393 14.2447 0.0130937 0 200 0
30.394 14.2496 0.0132534 0 200 0
30.3951 14.2544 0.0134131 0 200 0
30.3962 14.2593 0.0135728 0 200 0
30.3972 14.2642 0.0137325 0 200 0
30.3983 14.2691 0.0138921 0 200 0
30.3993 14.274 0.0140518 0 200 0
30.4004 14.2788 0.0142115 0 200 0
30.4015 14.2837 0.0143712 0 200 0
30.4025 14.2886 0.0145309 0 200 0
30.4036 14.2935 0.0146905 0 200 0
30.4047 14.2984 0.0148502 0 200 0
30.4057 14.3033 0.0150099 0 200 0
30.4068 14.3081 0.0151696 0 200 0
30.4078 14.313 0.0153293 0 200 0
30.4089 14.3179 0.0154889 0 200 0
30.41 14.3228 0.0156486 0 200 0
30.411 14.3277 0.0158083 0 200 0
31.7634 15.0201 0 0 200 0
31.7682 15.0212 0.000280214 0 200 0
31.7731 15.0224 0.000560428 0 200 0
31.7779 15.0236 0.000840642 0 200 0
31.7827 15.0248 0.00112086 0 200 0
31.7876 15.026 0.00140107 0 200 0
31.7924 15.0272 0.00168128 0 200 0
31.7973 15.0284 0.0019615 0 200 0
31.8021 15.0296 0.00224171 0 200 0
31.807 15.0308 0.00252193 0 200 0
31.8118 15.0319 0.00280214 0 200 0
31.8167 15.0331 0.00308236 0 200 0
31.8215 15.0343 0.00336257 0 200 0
31.8264 15.0355 0.00364278 0 200 0
31.8312 15.0367 0.003923 0 200 0
31.8361 15.0379 0.00420321 0 200 0
31.8409 15.0391 0.00448343 0 200 0
31.8458 15.0403 0.00476364 0 200 0
31.8506 15.0415 0.00504385 0 200 0
31.8555 15.0426 0.00532407 0 200 0
31.8603 15.0438 0.00560428 0 200 0
31.8652 15.045 0.0058845 0 200 0
31.87 15.0462 0.00616471 0 200 0
31.8749 15.0474 0.00644492 0 200 0
31.8797 15.0486 0.00672514 0 200 0
31.8846 15.0498 0.00700535 0 200 0
31.8894 15.051 0.00728557 0 200 0
31.8943 15.0522 0.00756578 0 200 0
31.8991 15.0533 0.007846 0 200 0
31.904 15.0545 0.00812621 0 200 0
31.9088 15.0557 0.00840642 0 200 0
31.9137 15.0569 0.00868664 0 200 0
31.9185 15.0581 0.00896685 0 200 0
31.9234 15.0593 0.00924707 0 200 0
31.9282 15.0605 0.00952728 0 200 0
31.9331 15.0617 0.00980749 0 200 0
31.9379 15.0629 0.0100877 0 200 0
31.9427 15.064 0.0103679 0 200 0
31.9476 15.0652 0.0106481 0 200 0
31.9524 15.0664 0.0109284 0 200 0
31.9573 15.0676 0.0112086 0 200 0
31.9621 15.0688 0.0114888 0 200 0
31.967 15.07 0.011769 0 200 0
31.9718 15.0712 0.0120492 0 200 0
31.9767 15.0724 0.0123294 0 200 0
31.9815 15.0736 0.0126096 0 200 0
31.9864 15.0747 0.0128898 0 200 0
31.9912 15.0759 0.0131701 0 200 0
31.9961 15.0771 0.0134503 0 200 0
32.0009 15.0783 0.0137305 0 200 0
32.0058 15.0795 0.0140107 0 200 0
32.0106 15.0807 0.0142909 0 200 0
32.0155 15.0819 0.0145711 0 200 0
32.0203 15.0831 0.0148513 0 200 0
32.0252 15.0843 0.0151316 0 200 0
32.03 15.0854 0.0154118 0 200 0
32.0349 15.0866 0.015692 0 200 0
32.0397 15.0878 0.0159722 0 200 0
32.0446 15.089 0.0162524 0 200 0
32.0494 15.0902 0.0165326 0 200 0
32.0543 15.0914 0.0168128 0 200 0
32.0591 15.0926 0.0170931 0 200 0
32.064 15.0938 0.0173733 0 200 0
32.0688 15.095 0.0176535 0 200 0
32.0737 15.0961 0.0179337 0 200 0
32.0785 15.0973 0.0182139 0 200 0
32.0834 15.0985 0.0184941 0 200 0
32.0882 15.0997 0.0187743 0 200 0
32.0931 15.1009 0.0190546 0 200 0
32.0979 15.1021 0.0193348 0 200 0
32.1027 15.1033 0.019615 0 200 0
32.1076 15.1045 0.0198952 0 200 0
32.1124 15.1057 0.0201754 0 200 0
32.1173 15.1068 0.0204556 0 200 0
32.1221 15.108 0.0207358 0 200 0
32.127 15.1092 0.0210161 0 200 0
32.1318 15.1104 0.0212963 0 200 0
32.1367 15.1116 0.0215765 0 200 0
32.1415 15.1128 0.0218567 0 200 0
32.1464 15.114 0.0221369 0 200 0
32.1512 15.1152 0.0224171 0 200 0
32.1561 15.1164 0.0226973 0 200 0
32.1609 15.1175 0.0229776 0 200 0
32.1658 15.1187 0.0232578 0 200 0
32.1706 15.1199 0.023538 0 200 0
32.1755 15.1211 0.0238182 0 200 0
32.1803 15.1223 0.0240984 0 200 0
32.1852 15.1235 0.0243786 0 200 0
32.19 15.1247 0.0246588 0 200 0
32.1949 15.1259 0.0249391 0 200 0
32.1997 15.1271 0.0252193 0 200 0
32.2046 15.1282 0.0254995 0 200 0
32.2094 15.1294 0.0257797 0 200 0
32.2143 15.1306 0.0260599 0 200 0
32.2191 15.1318 0.0263401 0 200 0
32.224 15.133 0.0266203 0 200 0
32.2288 15.1342 0.0269006 0 200 0
32.2337 15.1354 0.0271808 0 200 0
32.2385 15.1366 0.027461 0 200 0
32.2434 15.1378 0.0277412 0 200 0
33.5474 16.3785 0 0 200 0
33.5522 16.3798 0.000372787 0 200 0
33.5571 16.3811 0.000745574 0 200 0
33.5619 16.3824 0.00111836 0 200 0
33.5667 16.3838 0.00149115 0 200 0
33.5715 16.3851 0.00186393 0 200 0
33.5763 16.3864 0.00223672 0 200 0
33.5811 16.3877 0.00260951 0 200 0
33.5859 16.3891 0.0029823 0 200 0
33.5907 16.3904 0.00335508 0 200 0
33.5955 16.3917 0.00372787 0 200 0
33.6003 16.393 0.00410066 0 200 0
33.6051 16.3943 0.00447344 0 200 0
33.6099 16.3957 0.00484623 0 200 0
33.6147 16.397 0.00521902 0 200 0
33.6196 16.3983 0.0055918 0 200 0
33.6244 16.3996 0.00596459 0 200 0
33.6292 16.401 0.00633738 0 200 0
33.634 16.4023 0.00671016 0 200 0
33.6388 16.4036 0.00708295 0 200 0
33.6436 16.4049 0.00745574 0 200 0
33.6484 16.4062 0.00782852 0 200 0
33.6532 16.4076 0.00820131 0 200 0
33.658 16.4089 0.0085741 0 200 0
33.6628 16.4102 0.00894689 0 200 0
33.6676 16.4115 0.00931967 0 200 0
33.6724 16.4129 0.00969246 0 200 0
33.6772 16.4142 0.0100652 0 200 0
33.6821 16.4155 0.010438 0 200 0
33.6869 16.4168 0.0108108 0 200 0
33.6917 16.4182 0.0111836 0 200 0
33.6965 16.4195 0.0115564 0 200 0
33.7013 16.4208 0.0119292 0 200 0
33.7061 16.4221 0.012302 0 200 0
33.7109 16.4234 0.0126748 0 200 0
33.7157 16.4248 0.0130475 0 200 0
33.7205 16.4261 0.0134203 0 200 0
33.7253 16.4274 0.0137931 0 200 0
33.7301 16.4287 0.0141659 0 200 0
33.7349 16.4301 0.0145387 0 200 0
33.7397 16.4314 0.0149115 0 200 0
33.7445 16.4327 0.0152843 0 200 0
33.7494 16.434 0.015657 0 200 0
33.7542 16.4353 0.0160298 0 200 0
33.759 16.4367 0.0164026 0 200 0
33.7638 16.438 0.0167754 0 200 0
33.7686 16.4393 0.0171482 0 200 0
33.7734 16.4406 0.017521 0 200 0
33.7782 16.442 0.0178938 0 200 0
33.783 16.4433 0.0182666 0 200 0
33.7878 16.4446 0.0186393 0 200 0
33.7926 16.4459 0.0190121 0 200 0
33.7974 16.4473 0.0193849 0 200 0
33.8022 16.4486 0.0197577 0 200 0
33.807 16.4499 0.0201305 0 200 0
33.8119 16.4512 0.0205033 0 200 0
33.8167 16.4525 0.0208761 0 200 0
33.8215 16.4539 0.0212489 0 200 0
33.8263 16.4552 0.0216216 0 200 0
33.8311 16.4565 0.0219944 0 200 0
33.8359 16.4578 0.0223672 0 200 0
33.8407 16.4592 0.02274 0 200 0
33.8455 16.4605 0.0231128 0 200 0
33.8503 16.4618 0.0234856 0 200 0
33.8551 16.4631 0.0238584 0 200 0
33.8599 16.4644 0.0242311 0 200 0
33.8647 16.4658 0.0246039 0 200 0
33.8695 16.4671 0.0249767 0 200 0
33.8743 16.4684 0.0253495 0 200 0
33.8792 16.4697 0.0257223 0 200 0
33.884 16.4711 0.0260951 0 200 0
33.8888 16.4724 0.0264679 0 200 0
33.8936 16.4737 0.0268407 0 200 0
33.8984 16.475 0.0272134 0 200 0
33.9032 16.4764 0.0275862 0 200 0
33.908 16.4777 0.027959 0 200 0
33.9128 16.479 0.0283318 0 200 0
33.9176 16.4803 0.0287046 0 200 0
33.9224 16.4816 0.0290774 0 200 0
33.9272 16.483 0.0294502 0 200 0
33.932 16.4843 0.0298229 0 200 0
33.9368 16.4856 0.0301957 0 200 0
33.9417 16.4869 0.0305685 0 200 0
33.9465 16.4883 0.0309413 0 200 0
33.9513 16.4896 0.0313141 0 200 0
33.9561 16.4909 0.0316869 0 200 0
33.9609 16.4922 0.0320597 0 200 0
33.9657 16.4935 0.0324325 0 200 0
33.9705 16.4949 0.0328052 0 200 0
33.9753 16.4962 0.033178 0 200 0
33.9801 16.4975 0.0335508 0 200 0
33.9849 16.4988 0.0339236 0 200 0
33.9897 16.5002 0.0342964 0 200 0
33.9945 16.5015 0.0346692 0 200 0
33.9993 16.5028 0.035042 0 200 0
34.0042 16.5041 0.0354148 0 200 0
34.009 16.5055 0.0357875 0 200 0
34.0138 16.5068 0.0361603 0 200 0
34.0186 16.5081 0.0365331 0 200 0
34.0234 16.5094 0.0369059 0 200 0
35.5276 17.6022 0 0 200 0
35.5326 17.6025 0.000276834 0 200 0
35.5376 17.6028 0.000553667 0 200 0
35.5426 17.6031 0.000830501 0 200 0
35.5476 17.6034 0.00110733 0 200 0
35.5525 17.6037 0.00138417 0 200 0
35.5575 17.604 0.001661 0 200 0
35.5625 17.6043 0.00193784 0 200 0
35.5675 17.6046 0.00221467 0 200 0
35.5725 17.6049 0.0024915 0 200 0
35.5774 17.6052 0.00276834 0 200 0
35.5824 17.6055 0.00304517 0 200 0
35.5874 17.6058 0.003322 0 200 0
35.5924 17.6061 0.00359884 0 200 0
35.5974 17.6064 0.00387567 0 200 0
35.6024 17.6067 0.0041525 0 200 0
35.6073 17.607 0.00442934 0 200 0
35.6123 17.6073 0.00470617 0 200 0
35.6173 17.6076 0.00498301 0 200 0
35.6223 17.6079 0.00525984 0 200 0
35.6273 17.6082 0.00553667 0 200 0
35.6323 17.6085 0.00581351 0 200 0
35.6372 17.6088 0.00609034 0 200 0
35.6422 17.6091 0.00636717 0 200 0
35.6472 17.6094 0.00664401 0 200 0
35.6522 17.6097 0.00692084 0 200 0
35.6572 17.61 0.00719767 0 200 0
35.6622 17.6103 0.00747451 0 200 0
35.6671 17.6106 0.00775134 0 200 0
35.6721 17.6109 0.00802818 0 200 0
35.6771 17.6112 0.00830501 0 200 0
35.6821 17.6115 0.00858184 0 200 0
35.6871 17.6118 0.00885868 0 200 0
35.6921 17.6122 0.00913551 0 200 0
35.697 17.6125 0.00941234 0 200 0
35.702 17.6128 0.00968918 0 200 0
35.707 17.6131 0.00996601 0 200 0
35.712 17.6134 0.0102428 0 200 0
35.717 17.6137 0.0105197 0 200 0
35.722 17.614 0.0107965 0 200 0
35.7269 17.6143 0.0110733 0 200 0
35.7319 17.6146 0.0113502 0 200 0
35.7369 17.6149 0.011627 0 200 0
35.7419 17.6152 0.0119038 0 200 0
35.7469 17.6155 0.0121807 0 200 0
35.7519 17.6158 0.0124575 0 200 0
35.7568 17.6161 0.0127343 0 200 0
35.7618 17.6164 0.0130112 0 200 0
35.7668 17.6167 0.013288 0 200 0
35.7718 17.617 0.0135648 0 200 0
35.7768 17.6173 0.0138417 0 200 0
35.7818 17.6176 0.0141185 0 200 0
35.7867 17.6179 0.0143953 0 200 0
35.7917 17.6182 0.0146722 0 200 0
35.7967 17.6185 0.014949 0 200 0
35.8017 17.6188 0.0152259 0 200 0
35.8067 17.6191 0.0155027 0 200 0
35.8117 17.6194 0.0157795 0 200 0
35.8166 17.6197 0.0160564 0 200 0
35.8216 17.62 0.0163332 0 200 0
35.8266 17.6203 0.01661 0 200 0
35.8316 17.6206 0.0168869 0 200 0
35.8366 17.6209 0.0171637 0 200 0
35.8416 17.6212 0.0174405 0 200 0
35.8465 17.6215 0.0177174 0 200 0
35.8515 17.6218 0.0179942 0 200 0
35.8565 17.6221 0.018271 0 200 0
35.8615 17.6224 0.0185479 0 200 0
35.8665 17.6227 0.0188247 0 200 0
35.8715 17.623 0.0191015 0 200 0
35.8764 17.6233 0.0193784 0 200 0
35.8814 17.6236 0.0196552 0 200 0
35.8864 17.6239 0.019932 0 200 0
35.8914 17.6242 0.0202089 0 200 0
35.8964 17.6245 0.0204857 0 200 0
35.9014 17.6248 0.0207625 0 200 0
35.9063 17.6251 0.0210394 0 200 0
35.9113 17.6254 0.0213162 0 200 0
35.9163 17.6257 0.021593 0 200 0
35.9213 17.626 0.0218699 0 200 0
35.9263 17.6263 0.0221467 0 200 0
35.9313 17.6266 0.0224235 0 200 0
35.9362 17.6269 0.0227004 0 200 0
35.9412 17.6272 0.0229772 0 200 0
35.9462 17.6275 0.023254 0 200 0
35.9512 17.6278 0.0235309 0 200 0
35.9562 17.6281 0.0238077 0 200 0
35.9612 17.6284 0.0240845 0 200 0
35.9661 17.6287 0.0243614 0 200 0
35.9711 17.629 0.0246382 0 200 0
35.9761 17.6293 0.024915 0 200 0
35.9811 17.6296 0.0251919 0 200 0
35.9861 17.6299 0.0254687 0 200 0
35.9911 17.6302 0.0257455 0 200 0
35.996 17.6305 0.0260224 0 200 0
36.001 17.6308 0.0262992 0 200 0
36.006 17.6311 0.026576 0 200 0
36.011 17.6315 0.0268529 0 200 0
36.016 17.6318 0.0271297 0 200 0
36.021 17.6321 0.0274065 0 200 0
37.6432 18.6687 0 0 200 0
37.6482 18.6683 -2.66802e-05 0 200 0
37.6532 18.6679 -5.33604e-05 0 200 0
37.6582 18.6676 -8.00406e-05 0 200 0
37.6632 18.6672 -0.000106721 0 200 0
37.6682 18.6669 -0.000133401 0 200 0
37.6732 18.6665 -0.000160081 0 200 0
37.6782 18.6662 -0.000186761 0 200 0
37.6832 18.6658 -0.000213442 0 200 0
37.6881 18.6655 -0.000240122 0 200 0
37.6931 18.6651 -0.000266802 0 200 0
37.6981 18.6648 -0.000293482 0 200 0
37.7031 18.6644 -0.000320162 0 200 0
37.7081 18.664 -0.000346842 0 200 0
37.7131 18.6637 -0.000373523 0 200 0
37.7181 18.6633 -0.000400203 0 200 0
37.723 18.663 -0.000426883 0 200 0
37.728 18.6626 -0.000453563 0 200 0
37.733 18.6623 -0.000480243 0 200 0
37.738 18.6619 -0.000506924 0 200 0
37.743 18.6616 -0.000533604 0 200 0
37.748 18.6612 -0.000560284 0 200 0
37.753 18.6608 -0.000586964 0 200 0
37.758 18.6605 -0.000613644 0 200 0
37.7629 18.6601 -0.000640325 0 200 0
37.7679 18.6598 -0.000667005 0 200 0
37.7729 18.6594 -0.000693685 0 200 0
37.7779 18.6591 -0.000720365 0 200 0
37.7829 18.6587 -0.000747045 0 200 0
37.7879 18.6584 -0.000773726 0 200 0
37.7929 18.658 -0.000800406 0 200 0
37.7979 18.6577 -0.000827086 0 200 0
37.8028 18.6573 -0.000853766 0 200 0
37.8078 18.6569 -0.000880446 0 200 0
37.8128 18.6566 -0.000907127 0 200 0
37.8178 18.6562 -0.000933807 0 200 0
37.8228 18.6559 -0.000960487 0 200 0
37.8278 18.6555 -0.000987167 0 200 0
37.8328 18.6552 -0.00101385 0 200 0
37.8378 18.6548 -0.00104053 0 200 0
37.8427 18.6545 -0.00106721 0 200 0
37.8477 18.6541 -0.00109389 0 200 0
37.8527 18.6537 -0.00112057 0 200 0
37.8577 18.6534 -0.00114725 0 200 0
37.8627 18.653 -0.00117393 0 200 0
37.8677 18.6527 -0.00120061 0 200 0
37.8727 18.6523 -0.00122729 0 200 0
37.8777 18.652 -0.00125397 0 200 0
37.8826 18.6516 -0.00128065 0 200 0
37.8876 18.6513 -0.00130733 0 200 0
37.8926 18.6509 -0.00133401 0 200 0
37.8976 18.6506 -0.00136069 0 200 0
37.9026 18.6502 -0.00138737 0 200 0
37.9076 18.6498 -0.00141405 0 200 0
37.9126 18.6495 -0.00144073 0 200 0
37.9176 18.6491 -0.00146741 0 200 0
37.9225 18.6488 -0.00149409 0 200 0
37.9275 18.6484 -0.00152077 0 200 0
37.9325 18.6481 -0.00154745 0 200 0
37.9375 18.6477 -0.00157413 0 200 0
37.9425 18.6474 -0.00160081 0 200 0
37.9475 18.647 -0.00162749 0 200 0
37.9525 18.6466 -0.00165417 0 200 0
37.9575 18.6463 -0.00168085 0 200 0
37.9624 18.6459 -0.00170753 0 200 0
37.9674 18.6456 -0.00173421 0 200 0
37.9724 18.6452 -0.00176089 0 200 0
37.9774 18.6449 -0.00178757 0 200 0
37.9824 18.6445 -0.00181425 0 200 0
37.9874 18.6442 -0.00184093 0 200 0
37.9924 18.6438 -0.00186761 0 200 0
37.9973 18.6434 -0.00189429 0 200 0
38.0023 18.6431 -0.00192097 0 200 0
38.0073 18.6427 -0.00194765 0 200 0
38.0123 18.6424 -0.00197433 0 200 0
38.0173 18.642 -0.00200101 0 200 0
38.0223 18.6417 -0.00202769 0 200 0
38.0273 18.6413 -0.00205437 0 200 0
38.0323 18.641 -0.00208105 0 200 0
38.0372 18.6406 -0.00210774 0 200 0
38.0422 18.6403 -0.00213442 0 200 0
38.0472 18.6399 -0.0021611 0 200 0
38.0522 18.6395 -0.00218778 0 200 0
38.0572 18.6392 -0.00221446 0 200 0
38.0622 18.6388 -0.00224114 0 200 0
38.0672 18.6385 -0.00226782 0 200 0
38.0722 18.6381 -0.0022945 0 200 0
38.0771 18.6378 -0.00232118 0 200 0
38.0821 18.6374 -0.00234786 0 200 0
38.0871 18.6371 -0.00237454 0 200 0
38.0921 18.6367 -0.00240122 0 200 0
38.0971 18.6363 -0.0024279 0 200 0
38.1021 18.636 -0.00245458 0 200 0
38.1071 18.6356 -0.00248126 0 200 0
38.1121 18.6353 -0.00250794 0 200 0
38.117 18.6349 -0.00253462 0 200 0
38.122 18.6346 -0.0025613 0 200 0
38.127 18.6342 -0.00258798 0 200 0
38.132 18.6339 -0.00261466 0 200 0
38.137 18.6335 -0.00264134 0 200 0
39.7949 19.5665 0 0 200 0
39.7999 19.566 0.000131229 0 200 0
39.8049 19.5655 0.000262458 0 200 0
39.8098 19.5649 0.000393687 0 200 0
39.8148 19.5644 0.000524915 0 200 0
39.8198 19.5638 0.000656144 0 200 0
39.8247 19.5633 0.000787373 0 200 0
39.8297 19.5627 0.000918602 0 200 0
39.8347 19.5622 0.00104983 0 200 0
39.8396 19.5616 0.00118106 0 200 0
39.8446 19.5611 0.00131229 0 200 0
39.8496 19.5605 0.00144352 0 200 0
39.8545 19.56 0.00157475 0 200 0
39.8595 19.5594 0.00170598 0 200 0
39.8645 19.5589 0.0018372 0 200 0
39.8694 19.5584 0.00196843 0 200 0
39.8744 19.5578 0.00209966 0 200 0
39.8794 19.5573 0.00223089 0 200 0
39.8843 19.5567 0.00236212 0 200 0
39.8893 19.5562 0.00249335 0 200 0
39.8943 19.5556 0.00262458 0 200 0
39.8993 19.5551 0.00275581 0 200 0
39.9042 19.5545 0.00288704 0 200 0
39.9092 19.554 0.00301826 0 200 0
39.9142 19.5534 0.00314949 0 200 0
39.9191 19.5529 0.00328072 0 200 0
39.9241 19.5523 0.00341195 0 200 0
39.9291 19.5518 0.00354318 0 200 0
39.934 19.5512 0.00367441 0 200 0
39.939 19.5507 0.00380564 0 200 0
39.944 19.5502 0.00393687 0 200 0
39.9489 19.5496 0.00406809 0 200 0
39.9539 19.5491 0.00419932 0 200 0
39.9589 19.5485 0.00433055 0 200 0
39.9638 19.548 0.00446178 0 200 0
39.9688 19.5474 0.00459301 0 200 0
39.9738 19.5469 0.00472424 0 200 0
39.9787 19.5463 0.00485547 0 200 0
39.9837 19.5458 0.0049867 0 200 0
39.9887 19.5452 0.00511793 0 200 0
39.9936 19.5447 0.00524915 0 200 0
39.9986 19.5441 0.00538038 0 200 0
40.0036 19.5436 0.00551161 0 200 0
40.0086 19.5431 0.00564284 0 200 0
40.0135 19.5425 0.00577407 0 200 0
40.0185 19.542 0.0059053 0 200 0
40.0235 19.5414 0.00603653 0 200 0
40.0284 19.5409 0.00616776 0 200 0
40.0334 19.5403 0.00629899 0 200 0
40.0384 19.5398 0.00643021 0 200 0
40.0433 19.5392 0.00656144 0 200 0
40.0483 19.5387 0.00669267 0 200 0
40.0533 19.5381 0.0068239 0 200 0
40.0582 19.5376 0.00695513 0 200 0
40.0632 19.537 0.00708636 0 200 0
40.0682 19.5365 0.00721759 0 200 0
40.0731 19.5359 0.00734882 0 200 0
40.0781 19.5354 0.00748005 0 200 0
40.0831 19.5349 0.00761127 0 200 0
40.088 19.5343 0.0077425 0 200 0
40.093 19.5338 0.00787373 0 200 0
40.098 19.5332 0.00800496 0 200 0
40.1029 19.5327 0.00813619 0 200 0
40.1079 19.5321 0.00826742 0 200 0
40.1129 19.5316 0.00839865 0 200 0
40.1179 19.531 0.00852988 0 200 0
40.1228 19.5305 0.00866111 0 200 0
40.1278 19.5299 0.00879233 0 200 0
40.1328 19.5294 0.00892356 0 200 0
40.1377 19.5288 0.00905479 0 200 0
40.1427 19.5283 0.00918602 0 200 0
40.1477 19.5278 0.00931725 0 200 0
40.1526 19.5272 0.00944848 0 200 0
40.1576 19.5267 0.00957971 0 200 0
40.1626 19.5261 0.00971094 0 200 0
40.1675 19.5256 0.00984216 0 200 0
40.1725 19.525 0.00997339 0 200 0
40.1775 19.5245 0.0101046 0 200 0
40.1824 19.5239 0.0102359 0 200 0
40.1874 19.5234 0.0103671 0 200 0
40.1924 19.5228 0.0104983 0 200 0
40.1973 19.5223 0.0106295 0 200 0
40.2023 19.5217 0.0107608 0 200 0
40.2073 19.5212 0.010892 0 200 0
40.2123 19.5206 0.0110232 0 200 0
40.2172 19.5201 0.0111545 0 200 0
40.2222 19.5196 0.0112857 0 200 0
40.2272 19.519 0.0114169 0 200 0
40.2321 19.5185 0.0115481 0 200 0
40.2371 19.5179 0.0116794 0 200 0
40.2421 19.5174 0.0118106 0 200 0
40.247 19.5168 0.0119418 0 200 0
40.252 19.5163 0.0120731 0 200 0
40.257 19.5157 0.0122043 0 200 0
40.2619 19.5152 0.0123355 0 200 0
40.2669 19.5146 0.0124667 0 200 0
40.2719 19.5141 0.012598 0 200 0
40.2768 19.5135 0.0127292 0 200 0
40.2818 19.513 0.0128604 0 200 0
40.2868 19.5124 0.0129917 0 200 0
41.9526 20.2635 0 0 200 0
41.9576 20.2633 0.000161237 0 200 0
41.9625 20.2631 0.000322473 0 200 0
41.9675 20.2628 0.00048371 0 200 0
41.9725 20.2626 0.000644946 0 200 0
41.9775 20.2623 0.000806183 0 200 0
41.9825 20.2621 0.000967419 0 200 0
41.9875 20.2618 0.00112866 0 200 0
41.9925 20.2616 0.00128989 0 200 0
41.9975 20.2614 0.00145113 0 200 0
42.0025 20.2611 0.00161237 0 200 0
42.0075 20.2609 0.0017736 0 200 0
42.0125 20.2606 0.00193484 0 200 0
42.0175 20.2604 0.00209607 0 200 0
42.0224 20.2602 0.00225731 0 200 0
42.0274 20.2599 0.00241855 0 200 0
42.0324 20.2597 0.00257978 0 200 0
42.0374 20.2594 0.00274102 0 200 0
42.0424 20.2592 0.00290226 0 200 0
42.0474 20.2589 0.00306349 0 200 0
42.0524 20.2587 0.00322473 0 200 0
42.0574 20.2585 0.00338597 0 200 0
42.0624 20.2582 0.0035472 0 200 0
42.0674 20.258 0.00370844 0 200 0
42.0724 20.2577 0.00386968 0 200 0
42.0774 20.2575 0.00403091 0 200 0
42.0823 20.2573 0.00419215 0 200 0
42.0873 20.257 0.00435339 0 200 0
42.0923 20.2568 0.00451462 0 200 0
42.0973 20.2565 0.00467586 0 200 0
42.1023 20.2563 0.0048371 0 200 0
42.1073 20.2561 0.00499833 0 200 0
42.1123 20.2558 0.00515957 0 200 0
42.1173 20.2556 0.0053208 0 200 0
42.1223 20.2553 0.00548204 0 200 0
42.1273 20.2551 0.00564328 0 200 0
42.1323 20.2548 0.00580451 0 200 0
42.1373 20.2546 0.00596575 0 200 0
42.1422 20.2544 0.00612699 0 200 0
42.1472 20.2541 0.00628822 0 200 0
42.1522 20.2539 0.00644946 0 200 0
42.1572 20.2536 0.0066107 0 200 0
42.1622 20.2534 0.00677193 0 200 0
42.1672 20.2532 0.00693317 0 200 0
42.1722 20.2529 0.00709441 0 200 0
42.1772 20.2527 0.00725564 0 200 0
42.1822 20.2524 0.00741688 0 200 0
42.1872 20.2522 0.00757812 0 200 0
42.1922 20.252 0.00773935 0 200 0
42.1972 20.2517 0.00790059 0 200 0
42.2021 20.2515 0.00806183 0 200 0
42.2071 20.2512 0.00822306 0 200 0
42.2121 20.251 0.0083843 0 200 0
42.2171 20.2507 0.00854553 0 200 0
42.2221 20.2505 0.00870677 0 200 0
42.2271 20.2503 0.00886801 0 200 0
42.2321 20.25 0.00902924 0 200 0
42.2371 20.2498 0.00919048 0 200 0
42.2421 20.2495 0.00935172 0 200 0
42.2471 20.2493 0.00951295 0 200 0
42.2521 20.2491 0.00967419 0 200 0
42.257 20.2488 0.00983543 0 200 0
42.262 20.2486 0.00999666 0 200 0
42.267 20.2483 0.0101579 0 200 0
42.272 20.2481 0.0103191 0 200 0
42.277 20.2478 0.0104804 0 200 0
42.282 20.2476 0.0106416 0 200 0
42.287 20.2474 0.0108028 0 200 0
42.292 20.2471 0.0109641 0 200 0
42.297 20.2469 0.0111253 0 200 0
42.302 20.2466 0.0112866 0 200 0
42.307 20.2464 0.0114478 0 200 0
42.312 20.2462 0.011609 0 200 0
42.3169 20.2459 0.0117703 0 200 0
42.3219 20.2457 0.0119315 0 200 0
42.3269 20.2454 0.0120927 0 200 0
42.3319 20.2452 0.012254 0 200 0
42.3369 20.245 0.0124152 0 200 0
42.3419 20.2447 0.0125764 0 200 0
42.3469 20.2445 0.0127377 0 200 0
42.3519 20.2442 0.0128989 0 200 0
42.3569 20.244 0.0130602 0 200 0
42.3619 20.2437 0.0132214 0 200 0
42.3669 20.2435 0.0133826 0 200 0
42.3719 20.2433 0.0135439 0 200 0
42.3768 20.243 0.0137051 0 200 0
42.3818 20.2428 0.0138663 0 200 0
42.3868 20.2425 0.0140276 0 200 0
42.3918 20.2423 0.0141888 0 200 0
42.3968 20.2421 0.01435 0 200 0
42.4018 20.2418 0.0145113 0 200 0
42.4068 20.2416 0.0146725 0 200 0
42.4118 20.2413 0.0148338 0 200 0
42.4168 20.2411 0.014995 0 200 0
42.4218 20.2408 0.0151562 0 200 0
42.4268 20.2406 0.0153175 0 200 0
42.4318 20.2404 0.0154787 0 200 0
42.4367 20.2401 0.0156399 0 200 0
42.4417 20.2399 0.0158012 0 200 0
42.4467 20.2396 0.0159624 0 200 0
44.1042 20.668 0 0 200 0
44.1092 20.6676 0.000229741 0 200 0
44.1142 20.6673 0.000459482 0 200 0
44.1191 20.667 0.000689224 0 200 0
44.1241 20.6666 0.000918965 0 200 0
44.1291 20.6663 0.00114871 0 200 0
44.1341 20.6659 0.00137845 0 200 0
44.1391 20.6656 0.00160819 0 200 0
44.1441 20.6652 0.00183793 0 200 0
44.149 20.6649 0.00206767 0 200 0
44.154 20.6646 0.00229741 0 200 0
44.159 20.6642 0.00252715 0 200 0
44.164 20.6639 0.00275689 0 200 0
44.169 20.6635 0.00298664 0 200 0
44.1739 20.6632 0.00321638 0 200 0
44.1789 20.6628 0.00344612 0 200 0
44.1839 20.6625 0.00367586 0 200 0
44.1889 20.6622 0.0039056 0 200 0
44.1939 20.6618 0.00413534 0 200 0
44.1989 20.6615 0.00436508 0 200 0
44.2038 20.6611 0.00459482 0 200 0
44.2088 20.6608 0.00482457 0 200 0
44.2138 20.6604 0.00505431 0 200 0
44.2188 20.6601 0.00528405 0 200 0
44.2238 20.6598 0.00551379 0 200 0
44.2288 20.6594 0.00574353 0 200 0
44.2337 20.6591 0.00597327 0 200 0
44.2387 20.6587 0.00620301 0 200 0
44.2437 20.6584 0.00643275 0 200 0
44.2487 20.658 0.00666249 0 200 0
44.2537 20.6577 0.00689224 0 200 0
44.2587 20.6574 0.00712198 0 200 0
44.2636 20.657 0.00735172 0 200 0
44.2686 20.6567 0.00758146 0 200 0
44.2736 20.6563 0.0078112 0 200 0
44.2786 20.656 0.00804094 0 200 0
44.2836 20.6556 0.00827068 0 200 0
44.2886 20.6553 0.00850042 0 200 0
44.2935 20.655 0.00873017 0 200 0
44.2985 20.6546 0.00895991 0 200 0
44.3035 20.6543 0.00918965 0 200 0
44.3085 20.6539 0.00941939 0 200 0
44.3135 20.6536 0.00964913 0 200 0
44.3185 20.6532 0.00987887 0 200 0
44.3234 20.6529 0.0101086 0 200 0
44.3284 20.6525 0.0103384 0 200 0
44.3334 20.6522 0.0105681 0 200 0
44.3384 20.6519 0.0107978 0 200 0
44.3434 20.6515 0.0110276 0 200 0
44.3484 20.6512 0.0112573 0 200 0
44.3533 20.6508 0.0114871 0 200 0
44.3583 20.6505 0.0117168 0 200 0
44.3633 20.6501 0.0119465 0 200 0
44.3683 20.6498 0.0121763 0 200 0
44.3733 20.6495 0.012406 0 200 0
44.3782 20.6491 0.0126358 0 200 0
44.3832 20.6488 0.0128655 0 200 0
44.3882 20.6484 0.0130952 0 200 0
44.3932 20.6481 0.013325 0 200 0
44.3982 20.6477 0.0135547 0 200 0
44.4032 20.6474 0.0137845 0 200 0
44.4081 20.6471 0.0140142 0 200 0
44.4131 20.6467 0.014244 0 200 0
44.4181 20.6464 0.0144737 0 200 0
44.4231 20.646 0.0147034 0 200 0
44.4281 20.6457 0.0149332 0 200 0
44.4331 20.6453 0.0151629 0 200 0
44.438 20.645 0.0153927 0 200 0
44.443 20.6447 0.0156224 0 200 0
44.448 20.6443 0.0158521 0 200 0
44.453 20.644 0.0160819 0 200 0
44.458 20.6436 0.0163116 0 200 0
44.463 20.6433 0.0165414 0 200 0
44.4679 20.6429 0.0167711 0 200 0
44.4729 20.6426 0.0170008 0 200 0
44.4779 20.6423 0.0172306 0 200 0
44.4829 20.6419 0.0174603 0 200 0
44.4879 20.6416 0.0176901 0 200 0
44.4929 20.6412 0.0179198 0 200 0
44.4978 20.6409 0.0181496 0 200 0
44.5028 20.6405 0.0183793 0 200 0
44.5078 20.6402 0.018609 0 200 0
44.5128 20.6399 0.0188388 0 200 0
44.5178 20.6395 0.0190685 0 200 0
44.5228 20.6392 0.0192983 0 200 0
44.5277 20.6388 0.019528 0 200 0
44.5327 20.6385 0.0197577 0 200 0
44.5377 20.6381 0.0199875 0 200 0
44.5427 20.6378 0.0202172 0 200 0
44.5477 20.6375 0.020447 0 200 0
44.5527 20.6371 0.0206767 0 200 0
44.5576 20.6368 0.0209065 0 200 0
44.5626 20.6364 0.0211362 0 200 0
44.5676 20.6361 0.0213659 0 200 0
44.5726 20.6357 0.0215957 0 200 0
44.5776 20.6354 0.0218254 0 200 0
44.5825 20.6351 0.0220552 0 200 0
44.5875 20.6347 0.0222849 0 200 0
44.5925 20.6344 0.0225146 0 200 0
44.5975 20.634 0.0227444 0 200 0
46.2456 20.8359 0 0 200 0
46.2506 20.836 0.00020363 0 200 0
46.2556 20.836 0.000407261 0 200 0
46.2606 20.836 0.000610891 0 200 0
46.2656 20.836 0.000814522 0 200 0
46.2706 20.836 0.00101815 0 200 0
46.2756 20.8361 0.00122178 0 200 0
46.2805 20.8361 0.00142541 0 200 0
46.2855 20.8361 0.00162904 0 200 0
46.2905 20.8361 0.00183267 0 200 0
46.2955 20.8362 0.0020363 0 200 0
46.3005 20.8362 0.00223994 0 200 0
46.3055 20.8362 0.00244357 0 200 0
46.3105 20.8362 0.0026472 0 200 0
46.3155 20.8363 0.00285083 0 200 0
46.3205 20.8363 0.00305446 0 200 0
46.3255 20.8363 0.00325809 0 200 0
46.3305 20.8363 0.00346172 0 200 0
46.3355 20.8364 0.00366535 0 200 0
46.3405 20.8364 0.00386898 0 200 0
46.3455 20.8364 0.00407261 0 200 0
46.3505 20.8364 0.00427624 0 200 0
46.3555 20.8365 0.00447987 0 200 0
46.3605 20.8365 0.0046835 0 200 0
46.3655 20.8365 0.00488713 0 200 0
46.3705 20.8365 0.00509076 0 200 0
46.3755 20.8366 0.00529439 0 200 0
46.3805 20.8366 0.00549802 0 200 0
46.3855 20.8366 0.00570165 0 200 0
46.3905 20.8366 0.00590528 0 200 0
46.3955 20.8367 0.00610891 0 200 0
46.4004 20.8367 0.00631255 0 200 0
46.4054 20.8367 0.00651618 0 200 0
46.4104 20.8367 0.00671981 0 200 0
46.4154 20.8367 0.00692344 0 200 0
46.4204 20.8368 0.00712707 0 200 0
46.4254 20.8368 0.0073307 0 200 0
46.4304 20.8368 0.00753433 0 200 0
46.4354 20.8368 0.00773796 0 200 0
46.4404 20.8369 0.00794159 0 200 0
46.4454 20.8369 0.00814522 0 200 0
46.4504 20.8369 0.00834885 0 200 0
46.4554 20.8369 0.00855248 0 200 0
46.4604 20.837 0.00875611 0 200 0
46.4654 20.837 0.00895974 0 200 0
46.4704 20.837 0.00916337 0 200 0
46.4754 20.837 0.009367 0 200 0
46.4804 20.8371 0.00957063 0 200 0
46.4854 20.8371 0.00977426 0 200 0
46.4904 20.8371 0.00997789 0 200 0
46.4954 20.8371 0.0101815 0 200 0
46.5004 20.8372 0.0103852 0 200 0
46.5054 20.8372 0.0105888 0 200 0
46.5104 20.8372 0.0107924 0 200 0
46.5154 20.8372 0.010996 0 200 0
46.5203 20.8373 0.0111997 0 200 0
46.5253 20.8373 0.0114033 0 200 0
46.5303 20.8373 0.0116069 0 200 0
46.5353 20.8373 0.0118106 0 200 0
46.5403 20.8374 0.0120142 0 200 0
46.5453 20.8374 0.0122178 0 200 0
46.5503 20.8374 0.0124215 0 200 0
46.5553 20.8374 0.0126251 0 200 0
46.5603 20.8374 0.0128287 0 200 0
46.5653 20.8375 0.0130324 0 200 0
46.5703 20.8375 0.013236 0 200 0
46.5753 20.8375 0.0134396 0 200 0
46.5803 20.8375 0.0136432 0 200 0
46.5853 20.8376 0.0138469 0 200 0
46.5903 20.8376 0.0140505 0 200 0
46.5953 20.8376 0.0142541 0 200 0
46.6003 20.8376 0.0144578 0 200 0
46.6053 20.8377 0.0146614 0 200 0
46.6103 20.8377 0.014865 0 200 0
46.6153 20.8377 0.0150687 0 200 0
46.6203 20.8377 0.0152723 0 200 0
46.6253 20.8378 0.0154759 0 200 0
46.6303 20.8378 0.0156795 0 200 0
46.6353 20.8378 0.0158832 0 200 0
46.6402 20.8378 0.0160868 0 200 0
46.6452 20.8379 0.0162904 0 200 0
46.6502 20.8379 0.0164941 0 200 0
46.6552 20.8379 0.0166977 0 200 0
46.6602 20.8379 0.0169013 0 200 0
46.6652 20.838 0.017105 0 200 0
46.6702 20.838 0.0173086 0 200 0
46.6752 20.838 0.0175122 0 200 0
46.6802 20.838 0.0177159 0 200 0
46.6852 20.838 0.0179195 0 200 0
46.6902 20.8381 0.0181231 0 200 0
46.6952 20.8381 0.0183267 0 200 0
46.7002 20.8381 0.0185304 0 200 0
46.7052 20.8381 0.018734 0 200 0
46.7102 20.8382 0.0189376 0 200 0
46.7152 20.8382 0.0191413 0 200 0
46.7202 20.8382 0.0193449 0 200 0
46.7252 20.8382 0.0195485 0 200 0
46.7302 20.8383 0.0197522 0 200 0
46.7352 20.8383 0.0199558 0 200 0
46.7402 20.8383 0.0201594 0 200 0
48.3851 20.9206 0 0 200 0
48.3901 20.921 0.000216036 0 200 0
48.3951 20.9214 0.000432072 0 200 0
48.4001 20.9218 0.000648108 0 200 0
48.4051 20.9222 0.000864143 0 200 0
48.41 20.9225 0.00108018 0 200 0
48.415 20.9229 0.00129622 0 200 0
48.42 20.9233 0.00151225 0 200 0
48.425 20.9237 0.00172829 0 200 0
48.43 20.9241 0.00194432 0 200 0
48.4349 20.9244 0.00216036 0 200 0
48.4399 20.9248 0.00237639 0 200 0
48.4449 20.9252 0.00259243 0 200 0
48.4499 20.9256 0.00280847 0 200 0
48.4549 20.926 0.0030245 0 200 0
48.4599 20.9264 0.00324054 0 200 0
48.4648 20.9267 0.00345657 0 200 0
48.4698 20.9271 0.00367261 0 200 0
48.4748 20.9275 0.00388865 0 200 0
48.4798 20.9279 0.00410468 0 200 0
48.4848 20.9283 0.00432072 0 200 0
48.4897 20.9287 0.00453675 0 200 0
48.4947 20.929 0.00475279 0 200 0
48.4997 20.9294 0.00496882 0 200 0
48.5047 20.9298 0.00518486 0 200 0
48.5097 20.9302 0.0054009 0 200 0
48.5146 20.9306 0.00561693 0 200 0
48.5196 20.931 0.00583297 0 200 0
48.5246 20.9313 0.006049 0 200 0
48.5296 20.9317 0.00626504 0 200 0
48.5346 20.9321 0.00648108 0 200 0
48.5395 20.9325 0.00669711 0 200 0
48.5445 20.9329 0.00691315 0 200 0
48.5495 20.9332 0.00712918 0 200 0
48.5545 20.9336 0.00734522 0 200 0
48.5595 20.934 0.00756126 0 200 0
48.5644 20.9344 0.00777729 0 200 0
48.5694 20.9348 0.00799333 0 200 0
48.5744 20.9352 0.00820936 0 200 0
48.5794 20.9355 0.0084254 0 200 0
48.5844 20.9359 0.00864143 0 200 0
48.5893 20.9363 0.00885747 0 200 0
48.5943 20.9367 0.00907351 0 200 0
48.5993 20.9371 0.00928954 0 200 0
48.6043 20.9375 0.00950558 0 200 0
48.6093 20.9378 0.00972161 0 200 0
48.6143 20.9382 0.00993765 0 200 0
48.6192 20.9386 0.0101537 0 200 0
48.6242 20.939 0.0103697 0 200 0
48.6292 20.9394 0.0105858 0 200 0
48.6342 20.9397 0.0108018 0 200 0
48.6392 20.9401 0.0110178 0 200 0
48.6441 20.9405 0.0112339 0 200 0
48.6491 20.9409 0.0114499 0 200 0
48.6541 20.9413 0.0116659 0 200 0
48.6591 20.9417 0.011882 0 200 0
48.6641 20.942 0.012098 0 200 0
48.669 20.9424 0.012314 0 200 0
48.674 20.9428 0.0125301 0 200 0
48.679 20.9432 0.0127461 0 200 0
48.684 20.9436 0.0129622 0 200 0
48.689 20.944 0.0131782 0 200 0
48.6939 20.9443 0.0133942 0 200 0
48.6989 20.9447 0.0136103 0 200 0
48.7039 20.9451 0.0138263 0 200 0
48.7089 20.9455 0.0140423 0 200 0
48.7139 20.9459 0.0142584 0 200 0
48.7188 20.9463 0.0144744 0 200 0
48.7238 20.9466 0.0146904 0 200 0
48.7288 20.947 0.0149065 0 200 0
48.7338 20.9474 0.0151225 0 200 0
48.7388 20.9478 0.0153385 0 200 0
48.7437 20.9482 0.0155546 0 200 0
48.7487 20.9485 0.0157706 0 200 0
48.7537 20.9489 0.0159867 0 200 0
48.7587 20.9493 0.0162027 0 200 0
48.7637 20.9497 0.0164187 0 200 0
48.7687 20.9501 0.0166348 0 200 0
48.7736 20.9505 0.0168508 0 200 0
48.7786 20.9508 0.0170668 0 200 0
48.7836 20.9512 0.0172829 0 200 0
48.7886 20.9516 0.0174989 0 200 0
48.7936 20.952 0.0177149 0 200 0
48.7985 20.9524 0.017931 0 200 0
48.8035 20.9528 0.018147 0 200 0
48.8085 20.9531 0.018363 0 200 0
48.8135 20.9535 0.0185791 0 200 0
48.8185 20.9539 0.0187951 0 200 0
48.8234 20.9543 0.0190112 0 200 0
48.8284 20.9547 0.0192272 0 200 0
48.8334 20.955 0.0194432 0 200 0
48.8384 20.9554 0.0196593 0 200 0
48.8434 20.9558 0.0198753 0 200 0
48.8483 20.9562 0.0200913 0 200 0
48.8533 20.9566 0.0203074 0 200 0
48.8583 20.957 0.0205234 0 200 0
48.8633 20.9573 0.0207394 0 200 0
48.8683 20.9577 0.0209555 0 200 0
48.8732 20.9581 0.0211715 0 200 0
48.8782 20.9585 0.0213876 0 200 0
50.4813 20.9721 0 0 200 0
50.4862 20.9726 0.000460496 0 200 0
50.4912 20.9731 0.000920993 0 200 0
50.4961 20.9736 0.00138149 0 200 0
50.5011 20.9741 0.00184199 0 200 0
50.506 20.9746 0.00230248 0 200 0
50.511 20.9751 0.00276298 0 200 0
50.5159 20.9756 0.00322348 0 200 0
50.5209 20.9761 0.00368397 0 200 0
50.5259 20.9765 0.00414447 0 200 0
50.5308 20.977 0.00460496 0 200 0
50.5358 20.9775 0.00506546 0 200 0
50.5407 20.978 0.00552596 0 200 0
50.5457 20.9785 0.00598645 0 200 0
50.5506 20.979 0.00644695 0 200 0
50.5556 20.9795 0.00690745 0 200 0
50.5605 20.98 0.00736794 0 200 0
50.5655 20.9804 0.00782844 0 200 0
50.5704 20.9809 0.00828894 0 200 0
50.5754 20.9814 0.00874943 0 200 0
50.5804 20.9819 0.00920993 0 200 0
50.5853 20.9824 0.00967043 0 200 0
50.5903 20.9829 0.0101309 0 200 0
50.5952 20.9834 0.0105914 0 200 0
50.6002 20.9839 0.0110519 0 200 0
50.6051 20.9844 0.0115124 0 200 0
50.6101 20.9848 0.0119729 0 200 0
50.615 20.9853 0.0124334 0 200 0
50.62 20.9858 0.0128939 0 200 0
50.6249 20.9863 0.0133544 0 200 0
50.6299 20.9868 0.0138149 0 200 0
50.6349 20.9873 0.0142754 0 200 0
50.6398 20.9878 0.0147359 0 200 0
50.6448 20.9883 0.0151964 0 200 0
50.6497 20.9888 0.0156569 0 200 0
50.6547 20.9892 0.0161174 0 200 0
50.6596 20.9897 0.0165779 0 200 0
50.6646 20.9902 0.0170384 0 200 0
50.6695 20.9907 0.0174989 0 200 0
50.6745 20.9912 0.0179594 0 200 0
50.6794 20.9917 0.0184199 0 200 0
50.6844 20.9922 0.0188804 0 200 0
50.6894 20.9927 0.0193409 0 200 0
50.6943 20.9932 0.0198013 0 200 0
50.6993 20.9936 0.0202618 0 200 0
50.7042 20.9941 0.0207223 0 200 0
50.7092 20.9946 0.0211828 0 200 0
50.7141 20.9951 0.0216433 0 200 0
50.7191 20.9956 0.0221038 0 200 0
50.724 20.9961 0.0225643 0 200 0
50.729 20.9966 0.0230248 0 200 0
50.7339 20.9971 0.0234853 0 200 0
50.7389 20.9976 0.0239458 0 200 0
50.7439 20.998 0.0244063 0 200 0
50.7488 20.9985 0.0248668 0 200 0
50.7538 20.999 0.0253273 0 200 0
50.7587 20.9995 0.0257878 0 200 0
50.7637 21 0.0262483 0 200 0
50.7686 21.0005 0.0267088 0 200 0
50.7736 21.001 0.0271693 0 200 0
50.7785 21.0015 0.0276298 0 200 0
50.7835 21.002 0.0280903 0 200 0
50.7885 21.0024 0.0285508 0 200 0
50.7934 21.0029 0.0290113 0 200 0
50.7984 21.0034 0.0294718 0 200 0
50.8033 21.0039 0.0299323 0 200 0
50.8083 21.0044 0.0303928 0 200 0
50.8132 21.0049 0.0308533 0 200 0
50.8182 21.0054 0.0313138 0 200 0
50.8231 21.0059 0.0317743 0 200 0
50.8281 21.0064 0.0322348 0 200 0
50.833 21.0068 0.0326953 0 200 0
50.838 21.0073 0.0331557 0 200 0
50.843 21.0078 0.0336162 0 200 0
50.8479 21.0083 0.0340767 0 200 0
50.8529 21.0088 0.0345372 0 200 0
50.8578 21.0093 0.0349977 0 200 0
50.8628 21.0098 0.0354582 0 200 0
50.8677 21.0103 0.0359187 0 200 0
50.8727 21.0107 0.0363792 0 200 0
50.8776 21.0112 0.0368397 0 200 0
50.8826 21.0117 0.0373002 0 200 0
50.8875 21.0122 0.0377607 0 200 0
50.8925 21.0127 0.0382212 0 200 0
50.8975 21.0132 0.0386817 0 200 0
50.9024 21.0137 0.0391422 0 200 0
50.9074 21.0142 0.0396027 0 200 0
50.9123 21.0147 0.0400632 0 200 0
50.9173 21.0151 0.0405237 0 200 0
50.9222 21.0156 0.0409842 0 200 0
50.9272 21.0161 0.0414447 0 200 0
50.9321 21.0166 0.0419052 0 200 0
50.9371 21.0171 0.0423657 0 200 0
50.942 21.0176 0.0428262 0 200 0
50.947 21.0181 0.0432867 0 200 0
50.952 21.0186 0.0437472 0 200 0
50.9569 21.0191 0.0442077 0 200 0
50.9619 21.0195 0.0446682 0 200 0
50.9668 21.02 0.0451287 0 200 0
50.9718 21.0205 0.0455892 0 200 0
52.6342 20.9973 0 0 200 0
52.6391 20.9978 0.000484208 0 200 0
52.6441 20.9983 0.000968415 0 200 0
52.649 20.9989 0.00145262 0 200 0
52.654 20.9994 0.00193683 0 200 0
52.6589 21 0.00242104 0 200 0
52.6639 21.0005 0.00290525 0 200 0
52.6688 21.001 0.00338945 0 200 0
52.6737 21.0016 0.00387366 0 200 0
52.6787 21.0021 0.00435787 0 200 0
52.6836 21.0027 0.00484208 0 200 0
52.6886 21.0032 0.00532628 0 200 0
52.6935 21.0037 0.00581049 0 200 0
52.6985 21.0043 0.0062947 0 200 0
52.7034 21.0048 0.00677891 0 200 0
52.7084 21.0054 0.00726311 0 200 0
52.7133 21.0059 0.00774732 0 200 0
52.7183 21.0064 0.00823153 0 200 0
52.7232 21.007 0.00871574 0 200 0
52.7282 21.0075 0.00919994 0 200 0
52.7331 21.0081 0.00968415 0 200 0
52.7381 21.0086 0.0101684 0 200 0
52.743 21.0092 0.0106526 0 200 0
52.748 21.0097 0.0111368 0 200 0
52.7529 21.0102 0.011621 0 200 0
52.7579 21.0108 0.0121052 0 200 0
52.7628 21.0113 0.0125894 0 200 0
52.7677 21.0119 0.0130736 0 200 0
52.7727 21.0124 0.0135578 0 200 0
52.7776 21.0129 0.014042 0 200 0
52.7826 21.0135 0.0145262 0 200 0
52.7875 21.014 0.0150104 0 200 0
52.7925 21.0146 0.0154946 0 200 0
52.7974 21.0151 0.0159788 0 200 0
52.8024 21.0156 0.0164631 0 200 0
52.8073 21.0162 0.0169473 0 200 0
52.8123 21.0167 0.0174315 0 200 0
52.8172 21.0173 0.0179157 0 200 0
52.8222 21.0178 0.0183999 0 200 0
52.8271 21.0183 0.0188841 0 200 0
52.8321 21.0189 0.0193683 0 200 0
52.837 21.0194 0.0198525 0 200 0
52.8419 21.02 0.0203367 0 200 0
52.8469 21.0205 0.0208209 0 200 0
52.8518 21.021 0.0213051 0 200 0
52.8568 21.0216 0.0217893 0 200 0
52.8617 21.0221 0.0222735 0 200 0
52.8667 21.0227 0.0227578 0 200 0
52.8716 21.0232 0.023242 0 200 0
52.8766 21.0237 0.0237262 0 200 0
52.8815 21.0243 0.0242104 0 200 0
52.8865 21.0248 0.0246946 0 200 0
52.8914 21.0254 0.0251788 0 200 0
52.8964 21.0259 0.025663 0 200 0
52.9013 21.0264 0.0261472 0 200 0
52.9063 21.027 0.0266314 0 200 0
52.9112 21.0275 0.0271156 0 200 0
52.9162 21.0281 0.0275998 0 200 0
52.9211 21.0286 0.028084 0 200 0
52.926 21.0292 0.0285682 0 200 0
52.931 21.0297 0.0290525 0 200 0
52.9359 21.0302 0.0295367 0 200 0
52.9409 21.0308 0.0300209 0 200 0
52.9458 21.0313 0.0305051 0 200 0
52.9508 21.0319 0.0309893 0 200 0
52.9557 21.0324 0.0314735 0 200 0
52.9607 21.0329 0.0319577 0 200 0
52.9656 21.0335 0.0324419 0 200 0
52.9706 21.034 0.0329261 0 200 0
52.9755 21.0346 0.0334103 0 200 0
52.9805 21.0351 0.0338945 0 200 0
52.9854 21.0356 0.0343787 0 200 0
52.9904 21.0362 0.0348629 0 200 0
52.9953 21.0367 0.0353471 0 200 0
53.0003 21.0373 0.0358314 0 200 0
53.0052 21.0378 0.0363156 0 200 0
53.0101 21.0383 0.0367998 0 200 0
53.0151 21.0389 0.037284 0 200 0
53.02 21.0394 0.0377682 0 200 0
53.025 21.04 0.0382524 0 200 0
53.0299 21.0405 0.0387366 0 200 0
53.0349 21.041 0.0392208 0 200 0
53.0398 21.0416 0.039705 0 200 0
53.0448 21.0421 0.0401892 0 200 0
53.0497 21.0427 0.0406734 0 200 0
53.0547 21.0432 0.0411576 0 200 0
53.0596 21.0437 0.0416418 0 200 0
53.0646 21.0443 0.0421261 0 200 0
53.0695 21.0448 0.0426103 0 200 0
53.0745 21.0454 0.0430945 0 200 0
53.0794 21.0459 0.0435787 0 200 0
53.0844 21.0464 0.0440629 0 200 0
53.0893 21.047 0.0445471 0 200 0
53.0942 21.0475 0.0450313 0 200 0
53.0992 21.0481 0.0455155 0 200 0
53.1041 21.0486 0.0459997 0 200 0
53.1091 21.0492 0.0464839 0 200 0
53.114 21.0497 0.0469681 0 200 0
53.119 21.0502 0.0474523 0 200 0
53.1239 21.0508 0.0479365 0 200 0
54.7874 20.9764 0 0 200 0
54.7924 20.9768 0.000390147 0 200 0
54.7973 20.9771 0.000780293 0 200 0
54.8023 20.9774 0.00117044 0 200 0
54.8073 20.9777 0.00156059 0 200 0
54.8122 20.9781 0.00195073 0 200 0
54.8172 20.9784 0.00234088 0 200 0
54.8222 20.9787 0.00273103 0 200 0
54.8272 20.979 0.00312117 0 200 0
54.8321 20.9794 0.00351132 0 200 0
54.8371 20.9797 0.00390147 0 200 0
54.8421 20.98 0.00429161 0 200 0
54.8471 20.9803 0.00468176 0 200 0
54.852 20.9807 0.00507191 0 200 0
54.857 20.981 0.00546205 0 200 0
54.862 20.9813 0.0058522 0 200 0
54.867 20.9816 0.00624235 0 200 0
54.8719 20.982 0.00663249 0 200 0
54.8769 20.9823 0.00702264 0 200 0
54.8819 20.9826 0.00741279 0 200 0
54.8869 20.9829 0.00780293 0 200 0
54.8918 20.9833 0.00819308 0 200 0
54.8968 20.9836 0.00858323 0 200 0
54.9018 20.9839 0.00897337 0 200 0
54.9068 20.9842 0.00936352 0 200 0
54.9117 20.9846 0.00975367 0 200 0
54.9167 20.9849 0.0101438 0 200 0
54.9217 20.9852 0.010534 0 200 0
54.9267 20.9855 0.0109241 0 200 0
54.9316 20.9859 0.0113143 0 200 0
54.9366 20.9862 0.0117044 0 200 0
54.9416 20.9865 0.0120945 0 200 0
54.9465 20.9868 0.0124847 0 200 0
54.9515 20.9872 0.0128748 0 200 0
54.9565 20.9875 0.013265 0 200 0
54.9615 20.9878 0.0136551 0 200 0
54.9664 20.9881 0.0140453 0 200 0
54.9714 20.9885 0.0144354 0 200 0
54.9764 20.9888 0.0148256 0 200 0
54.9814 20.9891 0.0152157 0 200 0
54.9863 20.9894 0.0156059 0 200 0
54.9913 20.9898 0.015996 0 200 0
54.9963 20.9901 0.0163862 0 200 0
55.0013 20.9904 0.0167763 0 200 0
55.0062 20.9907 0.0171665 0 200 0
55.0112 20.9911 0.0175566 0 200 0
55.0162 20.9914 0.0179467 0 200 0
55.0212 20.9917 0.0183369 0 200 0
55.0261 20.992 0.018727 0 200 0
55.0311 20.9924 0.0191172 0 200 0
55.0361 20.9927 0.0195073 0 200 0
55.0411 20.993 0.0198975 0 200 0
55.046 20.9933 0.0202876 0 200 0
55.051 20.9937 0.0206778 0 200 0
55.056 20.994 0.0210679 0 200 0
55.061 20.9943 0.0214581 0 200 0
55.0659 20.9946 0.0218482 0 200 0
55.0709 20.995 0.0222384 0 200 0
55.0759 20.9953 0.0226285 0 200 0
55.0808 20.9956 0.0230187 0 200 0
55.0858 20.9959 0.0234088 0 200 0
55.0908 20.9963 0.0237989 0 200 0
55.0958 20.9966 0.0241891 0 200 0
55.1007 20.9969 0.0245792 0 200 0
55.1057 20.9972 0.0249694 0 200 0
55.1107 20.9976 0.0253595 0 200 0
55.1157 20.9979 0.0257497 0 200 0
55.1206 20.9982 0.0261398 0 200 0
55.1256 20.9985 0.02653 0 200 0
55.1306 20.9989 0.0269201 0 200 0
55.1356 20.9992 0.0273103 0 200 0
55.1405 20.9995 0.0277004 0 200 0
55.1455 20.9998 0.0280906 0 200 0
55.1505 21.0002 0.0284807 0 200 0
55.1555 21.0005 0.0288709 0 200 0
55.1604 21.0008 0.029261 0 200 0
55.1654 21.0011 0.0296511 0 200 0
55.1704 21.0015 0.0300413 0 200 0
55.1754 21.0018 0.0304314 0 200 0
55.1803 21.0021 0.0308216 0 200 0
55.1853 21.0024 0.0312117 0 200 0
55.1903 21.0028 0.0316019 0 200 0
55.1953 21.0031 0.031992 0 200 0
55.2002 21.0034 0.0323822 0 200 0
55.2052 21.0037 0.0327723 0 200 0
55.2102 21.0041 0.0331625 0 200 0
55.2151 21.0044 0.0335526 0 200 0
55.2201 21.0047 0.0339428 0 200 0
55.2251 21.005 0.0343329 0 200 0
55.2301 21.0054 0.0347231 0 200 0
55.235 21.0057 0.0351132 0 200 0
55.24 21.006 0.0355033 0 200 0
55.245 21.0063 0.0358935 0 200 0
55.25 21.0067 0.0362836 0 200 0
55.2549 21.007 0.0366738 0 200 0
55.2599 21.0073 0.0370639 0 200 0
55.2649 21.0076 0.0374541 0 200 0
55.2699 21.008 0.0378442 0 200 0
55.2748 21.0083 0.0382344 0 200 0
55.2798 21.0086 0.0386245 0 200 0
57.0226 20.8871 0 0 200 0
57.0275 20.8872 0.000423086 0 200 0
57.0325 20.8873 0.000846172 0 200 0
57.0375 20.8875 0.00126926 0 200 0
57.0425 20.8876 0.00169234 0 200 0
57.0475 20.8877 0.00211543 0 200 0
57.0525 20.8878 0.00253851 0 200 0
57.0574 20.888 0.0029616 0 200 0
57.0624 20.8881 0.00338469 0 200 0
57.0674 20.8882 0.00380777 0 200 0
57.0724 20.8883 0.00423086 0 200 0
57.0774 20.8884 0.00465394 0 200 0
57.0823 20.8886 0.00507703 0 200 0
57.0873 20.8887 0.00550011 0 200 0
57.0923 20.8888 0.0059232 0 200 0
57.0973 20.8889 0.00634629 0 200 0
57.1023 20.8891 0.00676937 0 200 0
57.1072 20.8892 0.00719246 0 200 0
57.1122 20.8893 0.00761554 0 200 0
57.1172 20.8894 0.00803863 0 200 0
57.1222 20.8895 0.00846172 0 200 0
57.1272 20.8897 0.0088848 0 200 0
57.1321 20.8898 0.00930789 0 200 0
57.1371 20.8899 0.00973097 0 200 0
57.1421 20.89 0.0101541 0 200 0
57.1471 20.8902 0.0105771 0 200 0
57.1521 20.8903 0.0110002 0 200 0
57.157 20.8904 0.0114233 0 200 0
57.162 20.8905 0.0118464 0 200 0
57.167 20.8906 0.0122695 0 200 0
57.172 20.8908 0.0126926 0 200 0
57.177 20.8909 0.0131157 0 200 0
57.1819 20.891 0.0135387 0 200 0
57.1869 20.8911 0.0139618 0 200 0
57.1919 20.8913 0.0143849 0 200 0
57.1969 20.8914 0.014808 0 200 0
57.2019 20.8915 0.0152311 0 200 0
57.2069 20.8916 0.0156542 0 200 0
57.2118 20.8917 0.0160773 0 200 0
57.2168 20.8919 0.0165003 0 200 0
57.2218 20.892 0.0169234 0 200 0
57.2268 20.8921 0.0173465 0 200 0
57.2318 20.8922 0.0177696 0 200 0
57.2367 20.8924 0.0181927 0 200 0
57.2417 20.8925 0.0186158 0 200 0
57.2467 20.8926 0.0190389 0 200 0
57.2517 20.8927 0.0194619 0 200 0
57.2567 20.8928 0.019885 0 200 0
57.2616 20.893 0.0203081 0 200 0
57.2666 20.8931 0.0207312 0 200 0
57.2716 20.8932 0.0211543 0 200 0
57.2766 20.8933 0.0215774 0 200 0
57.2816 20.8934 0.0220005 0 200 0
57.2865 20.8936 0.0224235 0 200 0
57.2915 20.8937 0.0228466 0 200 0
57.2965 20.8938 0.0232697 0 200 0
57.3015 20.8939 0.0236928 0 200 0
57.3065 20.8941 0.0241159 0 200 0
57.3114 20.8942 0.024539 0 200 0
57.3164 20.8943 0.0249621 0 200 0
57.3214 20.8944 0.0253851 0 200 0
57.3264 20.8946 0.0258082 0 200 0
57.3314 20.8947 0.0262313 0 200 0
57.3363 20.8948 0.0266544 0 200 0
57.3413 20.8949 0.0270775 0 200 0
