ply
format ascii 1.0
element vertex 1307
property float x
property float y
property float z
property uchar red
property uchar green
property uchar blue
element face 0
property list uchar int vertex_indices
end_header
0.216898 2.29448 -0.00878141 0 200 0
0.221178 2.29706 -0.00888982 0 200 0
0.225458 2.29964 -0.00899824 0 200 0
0.229738 2.30223 -0.00910665 0 200 0
0.234018 2.30481 -0.00921506 0 200 0
0.238298 2.30739 -0.00932347 0 200 0
0.242578 2.30997 -0.00943189 0 200 0
0.246858 2.31256 -0.0095403 0 200 0
0.251138 2.31514 -0.00964871 0 200 0
0.255418 2.31772 -0.00975712 0 200 0
0.259698 2.3203 -0.00986554 0 200 0
0.263978 2.32289 -0.00997395 0 200 0
0.268258 2.32547 -0.0100824 0 200 0
0.272538 2.32805 -0.0101908 0 200 0
0.276819 2.33063 -0.0102992 0 200 0
0.281099 2.33322 -0.0104076 0 200 0
0.285379 2.3358 -0.010516 0 200 0
0.289659 2.33838 -0.0106244 0 200 0
0.293939 2.34096 -0.0107328 0 200 0
-0.362115 1.70457 0 0 200 0
-0.357338 1.70604 0.000154646 0 200 0
-0.352562 1.70751 0.000309292 0 200 0
-0.347785 1.70898 0.000463937 0 200 0
-0.343008 1.71045 0.000618583 0 200 0
-0.338231 1.71191 0.000773229 0 200 0
-0.333454 1.71338 0.000927875 0 200 0
-0.328677 1.71485 0.00108252 0 200 0
-0.3239 1.71632 0.00123717 0 200 0
-0.319123 1.71779 0.00139181 0 200 0
-0.314347 1.71926 0.00154646 0 200 0
-0.30957 1.72073 0.0017011 0 200 0
-0.304793 1.7222 0.00185575 0 200 0
-0.300016 1.72367 0.00201039 0 200 0
-0.295239 1.72513 0.00216504 0 200 0
-0.290462 1.7266 0.00231969 0 200 0
-0.285685 1.72807 0.00247433 0 200 0
-0.280908 1.72954 0.00262898 0 200 0
-0.276132 1.73101 0.00278362 0 200 0
-0.271355 1.73248 0.00293827 0 200 0
-0.266578 1.73395 0.00309292 0 200 0
-0.261801 1.73542 0.00324756 0 200 0
-0.257024 1.73689 0.00340221 0 200 0
-0.252247 1.73835 0.00355685 0 200 0
-0.24747 1.73982 0.0037115 0 200 0
-0.242694 1.74129 0.00386614 0 200 0
-0.237917 1.74276 0.00402079 0 200 0
-0.23314 1.74423 0.00417544 0 200 0
-0.228363 1.7457 0.00433008 0 200 0
-0.223586 1.74717 0.00448473 0 200 0
-0.218809 1.74864 0.00463937 0 200 0
-0.214032 1.75011 0.00479402 0 200 0
-0.209256 1.75157 0.00494866 0 200 0
-0.204479 1.75304 0.00510331 0 200 0
-0.199702 1.75451 0.00525796 0 200 0
-0.194925 1.75598 0.0054126 0 200 0
-0.190148 1.75745 0.00556725 0 200 0
-0.185371 1.75892 0.00572189 0 200 0
-0.180594 1.76039 0.00587654 0 200 0
-0.175817 1.76186 0.00603118 0 200 0
-0.171041 1.76333 0.00618583 0 200 0
-0.166264 1.76479 0.00634048 0 200 0
-0.161487 1.76626 0.00649512 0 200 0
-0.15671 1.76773 0.00664977 0 200 0
-0.151933 1.7692 0.00680441 0 200 0
-0.147156 1.77067 0.00695906 0 200 0
-0.142379 1.77214 0.0071137 0 200 0
-0.137603 1.77361 0.00726835 0 200 0
-0.132826 1.77508 0.007423 0 200 0
-0.128049 1.77655 0.00757764 0 200 0
-0.123272 1.77801 0.00773229 0 200 0
-0.118495 1.77948 0.00788693 0 200 0
-0.113718 1.78095 0.00804158 0 200 0
-0.108941 1.78242 0.00819623 0 200 0
-0.104164 1.78389 0.00835087 0 200 0
-0.0993876 1.78536 0.00850552 0 200 0
-0.0946107 1.78683 0.00866016 0 200 0
-0.0898339 1.7883 0.00881481 0 200 0
-0.085057 1.78977 0.00896945 0 200 0
-0.0802801 1.79123 0.0091241 0 200 0
-0.0755033 1.7927 0.00927875 0 200 0
-0.0707264 1.79417 0.00943339 0 200 0
-0.0659495 1.79564 0.00958804 0 200 0
-0.0611727 1.79711 0.00974268 0 200 0
-0.0563958 1.79858 0.00989733 0 200 0
-0.0516189 1.80005 0.010052 0 200 0
-0.0468421 1.80152 0.0102066 0 200 0
-0.0420652 1.80299 0.0103613 0 200 0
-0.0372883 1.80445 0.0105159 0 200 0
-0.0325115 1.80592 0.0106706 0 200 0
-0.0277346 1.80739 0.0108252 0 200 0
-0.0229577 1.80886 0.0109798 0 200 0
-0.0181809 1.81033 0.0111345 0 200 0
-0.013404 1.8118 0.0112891 0 200 0
-0.00862713 1.81327 0.0114438 0 200 0
-0.00385026 1.81474 0.0115984 0 200 0
0.000926605 1.81621 0.0117531 0 200 0
0.00570347 1.81767 0.0119077 0 200 0
0.0104803 1.81914 0.0120624 0 200 0
0.0152572 1.82061 0.012217 0 200 0
0.0200341 1.82208 0.0123717 0 200 0
0.0248109 1.82355 0.0125263 0 200 0
0.0295878 1.82502 0.012681 0 200 0
0.0343647 1.82649 0.0128356 0 200 0
0.0391415 1.82796 0.0129902 0 200 0
0.0439184 1.82943 0.0131449 0 200 0
0.0486953 1.83089 0.0132995 0 200 0
0.0534721 1.83236 0.0134542 0 200 0
0.058249 1.83383 0.0136088 0 200 0
0.0630259 1.8353 0.0137635 0 200 0
0.0678027 1.83677 0.0139181 0 200 0
0.0725796 1.83824 0.0140728 0 200 0
0.0773565 1.83971 0.0142274 0 200 0
0.0821333 1.84118 0.0143821 0 200 0
0.0869102 1.84265 0.0145367 0 200 0
0.0916871 1.84411 0.0146913 0 200 0
0.0964639 1.84558 0.014846 0 200 0
0.101241 1.84705 0.0150006 0 200 0
0.106018 1.84852 0.0151553 0 200 0
0.110795 1.84999 0.0153099 0 200 0
-0.141278 1.4362 0 0 200 0
-0.13656 1.43455 -0.000169076 0 200 0
-0.131841 1.43291 -0.000338152 0 200 0
-0.127123 1.43126 -0.000507227 0 200 0
-0.122404 1.42962 -0.000676303 0 200 0
-0.117685 1.42797 -0.000845379 0 200 0
-0.112967 1.42633 -0.00101445 0 200 0
-0.108248 1.42468 -0.00118353 0 200 0
-0.103529 1.42304 -0.00135261 0 200 0
-0.0988109 1.42139 -0.00152168 0 200 0
-0.0940922 1.41975 -0.00169076 0 200 0
-0.0893736 1.4181 -0.00185983 0 200 0
-0.084655 1.41646 -0.00202891 0 200 0
-0.0799364 1.41481 -0.00219799 0 200 0
-0.0752178 1.41317 -0.00236706 0 200 0
-0.0704992 1.41152 -0.00253614 0 200 0
-0.0657805 1.40988 -0.00270521 0 200 0
-0.0610619 1.40823 -0.00287429 0 200 0
-0.0563433 1.40659 -0.00304336 0 200 0
-0.0516247 1.40494 -0.00321244 0 200 0
-0.0469061 1.4033 -0.00338152 0 200 0
-0.0421875 1.40165 -0.00355059 0 200 0
-0.0374688 1.40001 -0.00371967 0 200 0
-0.0327502 1.39836 -0.00388874 0 200 0
-0.0280316 1.39672 -0.00405782 0 200 0
-0.023313 1.39507 -0.00422689 0 200 0
-0.0185944 1.39343 -0.00439597 0 200 0
-0.0138757 1.39178 -0.00456505 0 200 0
-0.00915712 1.39014 -0.00473412 0 200 0
-0.00443851 1.38849 -0.0049032 0 200 0
0.000280112 1.38685 -0.00507227 0 200 0
0.00499873 1.3852 -0.00524135 0 200 0
0.00971735 1.38356 -0.00541042 0 200 0
0.014436 1.38191 -0.0055795 0 200 0
0.0191546 1.38027 -0.00574858 0 200 0
0.0238732 1.37862 -0.00591765 0 200 0
0.0285918 1.37698 -0.00608673 0 200 0
0.0333104 1.37533 -0.0062558 0 200 0
0.0380291 1.37369 -0.00642488 0 200 0
0.0427477 1.37204 -0.00659396 0 200 0
0.0474663 1.3704 -0.00676303 0 200 0
0.0521849 1.36875 -0.00693211 0 200 0
0.0569035 1.36711 -0.00710118 0 200 0
0.0616221 1.36546 -0.00727026 0 200 0
0.0663408 1.36382 -0.00743933 0 200 0
0.0710594 1.36217 -0.00760841 0 200 0
0.075778 1.36053 -0.00777749 0 200 0
0.0804966 1.35888 -0.00794656 0 200 0
0.0852152 1.35724 -0.00811564 0 200 0
0.0899339 1.35559 -0.00828471 0 200 0
0.0946525 1.35395 -0.00845379 0 200 0
0.0993711 1.3523 -0.00862286 0 200 0
0.10409 1.35066 -0.00879194 0 200 0
0.108808 1.34901 -0.00896102 0 200 0
0.113527 1.34737 -0.00913009 0 200 0
0.118246 1.34572 -0.00929917 0 200 0
0.122964 1.34408 -0.00946824 0 200 0
0.127683 1.34243 -0.00963732 0 200 0
0.132401 1.34079 -0.0098064 0 200 0
0.13712 1.33914 -0.00997547 0 200 0
0.141839 1.3375 -0.0101445 0 200 0
0.146557 1.33585 -0.0103136 0 200 0
0.151276 1.33421 -0.0104827 0 200 0
0.155995 1.33256 -0.0106518 0 200 0
0.160713 1.33092 -0.0108208 0 200 0
0.165432 1.32927 -0.0109899 0 200 0
0.17015 1.32763 -0.011159 0 200 0
0.174869 1.32598 -0.0113281 0 200 0
0.179588 1.32434 -0.0114972 0 200 0
0.184306 1.32269 -0.0116662 0 200 0
0.189025 1.32105 -0.0118353 0 200 0
0.193743 1.3194 -0.0120044 0 200 0
0.198462 1.31776 -0.0121735 0 200 0
0.203181 1.31611 -0.0123425 0 200 0
0.207899 1.31447 -0.0125116 0 200 0
0.212618 1.31282 -0.0126807 0 200 0
0.217337 1.31118 -0.0128498 0 200 0
0.222055 1.30953 -0.0130188 0 200 0
0.226774 1.30789 -0.0131879 0 200 0
0.231492 1.30624 -0.013357 0 200 0
0.236211 1.3046 -0.0135261 0 200 0
0.24093 1.30295 -0.0136951 0 200 0
0.245648 1.30131 -0.0138642 0 200 0
0.250367 1.29966 -0.0140333 0 200 0
0.255085 1.29802 -0.0142024 0 200 0
0.259804 1.29637 -0.0143714 0 200 0
0.264523 1.29473 -0.0145405 0 200 0
0.269241 1.29308 -0.0147096 0 200 0
0.27396 1.29144 -0.0148787 0 200 0
0.278679 1.28979 -0.0150477 0 200 0
0.283397 1.28815 -0.0152168 0 200 0
0.288116 1.2865 -0.0153859 0 200 0
0.292834 1.28486 -0.015555 0 200 0
0.297553 1.28321 -0.015724 0 200 0
0.302272 1.28157 -0.0158931 0 200 0
0.30699 1.27992 -0.0160622 0 200 0
0.311709 1.27828 -0.0162313 0 200 0
0.316428 1.27663 -0.0164004 0 200 0
0.321146 1.27499 -0.0165694 0 200 0
0.325865 1.27334 -0.0167385 0 200 0
-0.0857632 1.26167 0 0 200 0
-0.0812994 1.25947 -0.000465606 0 200 0
-0.0768355 1.25726 -0.000931211 0 200 0
-0.0723717 1.25506 -0.00139682 0 200 0
-0.0679079 1.25286 -0.00186242 0 200 0
-0.0634441 1.25065 -0.00232803 0 200 0
-0.0589802 1.24845 -0.00279363 0 200 0
-0.0545164 1.24624 -0.00325924 0 200 0
-0.0500526 1.24404 -0.00372484 0 200 0
-0.0455888 1.24184 -0.00419045 0 200 0
-0.041125 1.23963 -0.00465606 0 200 0
-0.0366611 1.23743 -0.00512166 0 200 0
-0.0321973 1.23522 -0.00558727 0 200 0
-0.0277335 1.23302 -0.00605287 0 200 0
-0.0232697 1.23082 -0.00651848 0 200 0
-0.0188059 1.22861 -0.00698408 0 200 0
-0.014342 1.22641 -0.00744969 0 200 0
-0.00987821 1.2242 -0.00791529 0 200 0
-0.00541439 1.222 -0.0083809 0 200 0
-0.000950567 1.2198 -0.00884651 0 200 0
0.00351326 1.21759 -0.00931211 0 200 0
0.00797708 1.21539 -0.00977772 0 200 0
0.0124409 1.21318 -0.0102433 0 200 0
0.0169047 1.21098 -0.0107089 0 200 0
0.0213685 1.20878 -0.0111745 0 200 0
0.0258324 1.20657 -0.0116401 0 200 0
0.0302962 1.20437 -0.0121057 0 200 0
0.03476 1.20216 -0.0125714 0 200 0
0.0392238 1.19996 -0.013037 0 200 0
0.0436877 1.19776 -0.0135026 0 200 0
0.0481515 1.19555 -0.0139682 0 200 0
0.0526153 1.19335 -0.0144338 0 200 0
0.0570791 1.19114 -0.0148994 0 200 0
0.0615429 1.18894 -0.015365 0 200 0
0.0660068 1.18674 -0.0158306 0 200 0
0.0704706 1.18453 -0.0162962 0 200 0
0.0749344 1.18233 -0.0167618 0 200 0
0.0793982 1.18012 -0.0172274 0 200 0
0.0838621 1.17792 -0.017693 0 200 0
0.0883259 1.17572 -0.0181586 0 200 0
0.0927897 1.17351 -0.0186242 0 200 0
0.0972535 1.17131 -0.0190898 0 200 0
0.101717 1.1691 -0.0195554 0 200 0
0.106181 1.1669 -0.020021 0 200 0
0.110645 1.1647 -0.0204866 0 200 0
0.115109 1.16249 -0.0209523 0 200 0
0.119573 1.16029 -0.0214179 0 200 0
0.124036 1.15808 -0.0218835 0 200 0
0.1285 1.15588 -0.0223491 0 200 0
0.132964 1.15368 -0.0228147 0 200 0
0.137428 1.15147 -0.0232803 0 200 0
0.141892 1.14927 -0.0237459 0 200 0
0.146356 1.14706 -0.0242115 0 200 0
0.150819 1.14486 -0.0246771 0 200 0
0.155283 1.14266 -0.0251427 0 200 0
0.159747 1.14045 -0.0256083 0 200 0
0.164211 1.13825 -0.0260739 0 200 0
0.168675 1.13604 -0.0265395 0 200 0
0.173138 1.13384 -0.0270051 0 200 0
0.177602 1.13164 -0.0274707 0 200 0
0.182066 1.12943 -0.0279363 0 200 0
0.18653 1.12723 -0.0284019 0 200 0
0.190994 1.12502 -0.0288675 0 200 0
0.195458 1.12282 -0.0293332 0 200 0
0.199921 1.12062 -0.0297988 0 200 0
0.204385 1.11841 -0.0302644 0 200 0
0.208849 1.11621 -0.03073 0 200 0
0.213313 1.114 -0.0311956 0 200 0
0.217777 1.1118 -0.0316612 0 200 0
0.222241 1.1096 -0.0321268 0 200 0
0.226704 1.10739 -0.0325924 0 200 0
0.231168 1.10519 -0.033058 0 200 0
0.235632 1.10298 -0.0335236 0 200 0
0.240096 1.10078 -0.0339892 0 200 0
0.24456 1.09858 -0.0344548 0 200 0
0.249023 1.09637 -0.0349204 0 200 0
0.253487 1.09417 -0.035386 0 200 0
0.257951 1.09196 -0.0358516 0 200 0
0.262415 1.08976 -0.0363172 0 200 0
0.266879 1.08756 -0.0367828 0 200 0
0.271343 1.08535 -0.0372484 0 200 0
0.275806 1.08315 -0.0377141 0 200 0
0.28027 1.08095 -0.0381797 0 200 0
0.284734 1.07874 -0.0386453 0 200 0
0.289198 1.07654 -0.0391109 0 200 0
0.293662 1.07433 -0.0395765 0 200 0
0.298126 1.07213 -0.0400421 0 200 0
0.302589 1.06993 -0.0405077 0 200 0
0.307053 1.06772 -0.0409733 0 200 0
0.311517 1.06552 -0.0414389 0 200 0
0.315981 1.06331 -0.0419045 0 200 0
0.320445 1.06111 -0.0423701 0 200 0
0.324908 1.05891 -0.0428357 0 200 0
0.329372 1.0567 -0.0433013 0 200 0
0.333836 1.0545 -0.0437669 0 200 0
0.3383 1.05229 -0.0442325 0 200 0
0.342764 1.05009 -0.0446981 0 200 0
0.347228 1.04789 -0.0451637 0 200 0
0.351691 1.04568 -0.0456293 0 200 0
0.356155 1.04348 -0.046095 0 200 0
-0.159357 1.04961 0 0 200 0
-0.154375 1.04925 -0.000240737 0 200 0
-0.149394 1.04889 -0.000481473 0 200 0
-0.144412 1.04854 -0.00072221 0 200 0
-0.139431 1.04818 -0.000962946 0 200 0
-0.134449 1.04782 -0.00120368 0 200 0
-0.129468 1.04747 -0.00144442 0 200 0
-0.124486 1.04711 -0.00168516 0 200 0
-0.119505 1.04675 -0.00192589 0 200 0
-0.114523 1.0464 -0.00216663 0 200 0
-0.109542 1.04604 -0.00240737 0 200 0
-0.10456 1.04568 -0.0026481 0 200 0
-0.0995789 1.04533 -0.00288884 0 200 0
-0.0945974 1.04497 -0.00312958 0 200 0
-0.089616 1.04462 -0.00337031 0 200 0
-0.0846345 1.04426 -0.00361105 0 200 0
-0.079653 1.0439 -0.00385179 0 200 0
-0.0746716 1.04355 -0.00409252 0 200 0
-0.0696901 1.04319 -0.00433326 0 200 0
-0.0647086 1.04283 -0.00457399 0 200 0
-0.0597272 1.04248 -0.00481473 0 200 0
-0.0547457 1.04212 -0.00505547 0 200 0
-0.0497642 1.04176 -0.0052962 0 200 0
-0.0447828 1.04141 -0.00553694 0 200 0
-0.0398013 1.04105 -0.00577768 0 200 0
-0.0348198 1.04069 -0.00601841 0 200 0
-0.0298384 1.04034 -0.00625915 0 200 0
-0.0248569 1.03998 -0.00649989 0 200 0
-0.0198754 1.03963 -0.00674062 0 200 0
-0.0148939 1.03927 -0.00698136 0 200 0
-0.00991248 1.03891 -0.0072221 0 200 0
-0.00493101 1.03856 -0.00746283 0 200 0
5.04534e-05 1.0382 -0.00770357 0 200 0
0.00503192 1.03784 -0.00794431 0 200 0
0.0100134 1.03749 -0.00818504 0 200 0
0.0149949 1.03713 -0.00842578 0 200 0
0.0199763 1.03677 -0.00866652 0 200 0
0.0249578 1.03642 -0.00890725 0 200 0
0.0299393 1.03606 -0.00914799 0 200 0
0.0349207 1.03571 -0.00938873 0 200 0
0.0399022 1.03535 -0.00962946 0 200 0
0.0448837 1.03499 -0.0098702 0 200 0
0.0498651 1.03464 -0.0101109 0 200 0
0.0548466 1.03428 -0.0103517 0 200 0
0.0598281 1.03392 -0.0105924 0 200 0
0.0648095 1.03357 -0.0108331 0 200 0
0.069791 1.03321 -0.0110739 0 200 0
0.0747725 1.03285 -0.0113146 0 200 0
0.0797539 1.0325 -0.0115554 0 200 0
0.0847354 1.03214 -0.0117961 0 200 0
0.0897169 1.03178 -0.0120368 0 200 0
0.0946983 1.03143 -0.0122776 0 200 0
0.0996798 1.03107 -0.0125183 0 200 0
0.104661 1.03072 -0.012759 0 200 0
0.109643 1.03036 -0.0129998 0 200 0
0.114624 1.03 -0.0132405 0 200 0
0.119606 1.02965 -0.0134812 0 200 0
0.124587 1.02929 -0.013722 0 200 0
0.129569 1.02893 -0.0139627 0 200 0
0.13455 1.02858 -0.0142035 0 200 0
0.139532 1.02822 -0.0144442 0 200 0
0.144513 1.02786 -0.0146849 0 200 0
0.149494 1.02751 -0.0149257 0 200 0
0.154476 1.02715 -0.0151664 0 200 0
0.159457 1.02679 -0.0154071 0 200 0
0.164439 1.02644 -0.0156479 0 200 0
0.16942 1.02608 -0.0158886 0 200 0
0.174402 1.02573 -0.0161294 0 200 0
0.179383 1.02537 -0.0163701 0 200 0
0.184365 1.02501 -0.0166108 0 200 0
0.189346 1.02466 -0.0168516 0 200 0
0.194328 1.0243 -0.0170923 0 200 0
0.199309 1.02394 -0.017333 0 200 0
0.204291 1.02359 -0.0175738 0 200 0
0.209272 1.02323 -0.0178145 0 200 0
0.214254 1.02287 -0.0180552 0 200 0
0.219235 1.02252 -0.018296 0 200 0
0.224217 1.02216 -0.0185367 0 200 0
0.229198 1.02181 -0.0187775 0 200 0
0.234179 1.02145 -0.0190182 0 200 0
0.239161 1.02109 -0.0192589 0 200 0
0.244142 1.02074 -0.0194997 0 200 0
0.249124 1.02038 -0.0197404 0 200 0
0.254105 1.02002 -0.0199811 0 200 0
0.259087 1.01967 -0.0202219 0 200 0
0.264068 1.01931 -0.0204626 0 200 0
0.26905 1.01895 -0.0207033 0 200 0
0.274031 1.0186 -0.0209441 0 200 0
0.279013 1.01824 -0.0211848 0 200 0
0.283994 1.01788 -0.0214256 0 200 0
0.288976 1.01753 -0.0216663 0 200 0
0.293957 1.01717 -0.021907 0 200 0
0.298939 1.01682 -0.0221478 0 200 0
0.30392 1.01646 -0.0223885 0 200 0
0.308901 1.0161 -0.0226292 0 200 0
0.313883 1.01575 -0.02287 0 200 0
0.318864 1.01539 -0.0231107 0 200 0
0.323846 1.01503 -0.0233514 0 200 0
0.328827 1.01468 -0.0235922 0 200 0
0.333809 1.01432 -0.0238329 0 200 0
-0.0824295 0.806952 0 0 200 0
-0.0774327 0.806776 3.60412e-05 0 200 0
-0.0724359 0.8066 7.20823e-05 0 200 0
-0.0674392 0.806424 0.000108124 0 200 0
-0.0624424 0.806248 0.000144165 0 200 0
-0.0574456 0.806073 0.000180206 0 200 0
-0.0524488 0.805897 0.000216247 0 200 0
-0.0474521 0.805721 0.000252288 0 200 0
-0.0424553 0.805545 0.000288329 0 200 0
-0.0374585 0.805369 0.000324371 0 200 0
-0.0324617 0.805194 0.000360412 0 200 0
-0.0274649 0.805018 0.000396453 0 200 0
-0.0224682 0.804842 0.000432494 0 200 0
-0.0174714 0.804666 0.000468535 0 200 0
-0.0124746 0.80449 0.000504576 0 200 0
-0.00747783 0.804314 0.000540618 0 200 0
-0.00248105 0.804139 0.000576659 0 200 0
0.00251572 0.803963 0.0006127 0 200 0
0.0075125 0.803787 0.000648741 0 200 0
0.0125093 0.803611 0.000684782 0 200 0
0.0175061 0.803435 0.000720823 0 200 0
0.0225028 0.80326 0.000756864 0 200 0
0.0274996 0.803084 0.000792906 0 200 0
0.0324964 0.802908 0.000828947 0 200 0
0.0374932 0.802732 0.000864988 0 200 0
0.0424899 0.802556 0.000901029 0 200 0
0.0474867 0.80238 0.00093707 0 200 0
0.0524835 0.802205 0.000973112 0 200 0
0.0574803 0.802029 0.00100915 0 200 0
0.0624771 0.801853 0.00104519 0 200 0
0.0674738 0.801677 0.00108124 0 200 0
0.0724706 0.801501 0.00111728 0 200 0
0.0774674 0.801326 0.00115332 0 200 0
0.0824642 0.80115 0.00118936 0 200 0
0.087461 0.800974 0.0012254 0 200 0
0.0924577 0.800798 0.00126144 0 200 0
0.0974545 0.800622 0.00129748 0 200 0
0.102451 0.800446 0.00133352 0 200 0
0.107448 0.800271 0.00136956 0 200 0
0.112445 0.800095 0.00140561 0 200 0
0.117442 0.799919 0.00144165 0 200 0
0.122438 0.799743 0.00147769 0 200 0
0.127435 0.799567 0.00151373 0 200 0
0.132432 0.799392 0.00154977 0 200 0
0.137429 0.799216 0.00158581 0 200 0
0.142426 0.79904 0.00162185 0 200 0
0.147422 0.798864 0.00165789 0 200 0
0.152419 0.798688 0.00169393 0 200 0
0.157416 0.798512 0.00172998 0 200 0
0.162413 0.798337 0.00176602 0 200 0
0.167409 0.798161 0.00180206 0 200 0
0.172406 0.797985 0.0018381 0 200 0
0.177403 0.797809 0.00187414 0 200 0
0.1824 0.797633 0.00191018 0 200 0
0.187396 0.797457 0.00194622 0 200 0
0.192393 0.797282 0.00198226 0 200 0
0.19739 0.797106 0.00201831 0 200 0
0.202387 0.79693 0.00205435 0 200 0
0.207384 0.796754 0.00209039 0 200 0
0.21238 0.796578 0.00212643 0 200 0
0.217377 0.796403 0.00216247 0 200 0
0.222374 0.796227 0.00219851 0 200 0
0.227371 0.796051 0.00223455 0 200 0
0.232368 0.795875 0.00227059 0 200 0
0.237364 0.795699 0.00230663 0 200 0
0.242361 0.795523 0.00234268 0 200 0
0.247358 0.795348 0.00237872 0 200 0
0.252355 0.795172 0.00241476 0 200 0
0.257351 0.794996 0.0024508 0 200 0
0.262348 0.79482 0.00248684 0 200 0
0.267345 0.794644 0.00252288 0 200 0
0.272342 0.794468 0.00255892 0 200 0
0.277339 0.794293 0.00259496 0 200 0
0.282335 0.794117 0.00263101 0 200 0
0.287332 0.793941 0.00266705 0 200 0
0.292329 0.793765 0.00270309 0 200 0
0.297326 0.793589 0.00273913 0 200 0
0.302322 0.793414 0.00277517 0 200 0
0.307319 0.793238 0.00281121 0 200 0
0.312316 0.793062 0.00284725 0 200 0
0.317313 0.792886 0.00288329 0 200 0
0.322309 0.79271 0.00291933 0 200 0
0.327306 0.792534 0.00295538 0 200 0
0.332303 0.792359 0.00299142 0 200 0
0.3373 0.792183 0.00302746 0 200 0
0.342297 0.792007 0.0030635 0 200 0
0.347293 0.791831 0.00309954 0 200 0
0.35229 0.791655 0.00313558 0 200 0
0.357287 0.79148 0.00317162 0 200 0
0.362284 0.791304 0.00320766 0 200 0
0.367281 0.791128 0.00324371 0 200 0
0.372277 0.790952 0.00327975 0 200 0
0.377274 0.790776 0.00331579 0 200 0
0.382271 0.7906 0.00335183 0 200 0
0.387268 0.790425 0.00338787 0 200 0
0.392264 0.790249 0.00342391 0 200 0
0.397261 0.790073 0.00345995 0 200 0
0.402258 0.789897 0.00349599 0 200 0
0.407255 0.789721 0.00353203 0 200 0
0.412252 0.789545 0.00356808 0 200 0
0.109215 0.742983 0 0 200 0
0.114207 0.742863 -0.000248431 0 200 0
0.119199 0.742744 -0.000496862 0 200 0
0.124192 0.742625 -0.000745293 0 200 0
0.129184 0.742506 -0.000993724 0 200 0
0.134177 0.742387 -0.00124215 0 200 0
0.139169 0.742268 -0.00149059 0 200 0
0.144161 0.742149 -0.00173902 0 200 0
0.149154 0.74203 -0.00198745 0 200 0
0.154146 0.741911 -0.00223588 0 200 0
0.159139 0.741791 -0.00248431 0 200 0
0.164131 0.741672 -0.00273274 0 200 0
0.169123 0.741553 -0.00298117 0 200 0
0.174116 0.741434 -0.0032296 0 200 0
0.179108 0.741315 -0.00347803 0 200 0
0.184101 0.741196 -0.00372646 0 200 0
0.189093 0.741077 -0.0039749 0 200 0
0.194085 0.740958 -0.00422333 0 200 0
0.199078 0.740839 -0.00447176 0 200 0
0.20407 0.740719 -0.00472019 0 200 0
0.209063 0.7406 -0.00496862 0 200 0
0.214055 0.740481 -0.00521705 0 200 0
0.219047 0.740362 -0.00546548 0 200 0
0.22404 0.740243 -0.00571391 0 200 0
0.229032 0.740124 -0.00596234 0 200 0
0.234025 0.740005 -0.00621077 0 200 0
0.239017 0.739886 -0.0064592 0 200 0
0.244009 0.739766 -0.00670764 0 200 0
0.249002 0.739647 -0.00695607 0 200 0
0.253994 0.739528 -0.0072045 0 200 0
0.258987 0.739409 -0.00745293 0 200 0
0.263979 0.73929 -0.00770136 0 200 0
0.268971 0.739171 -0.00794979 0 200 0
0.273964 0.739052 -0.00819822 0 200 0
0.278956 0.738933 -0.00844665 0 200 0
0.283949 0.738814 -0.00869508 0 200 0
0.288941 0.738694 -0.00894351 0 200 0
0.293933 0.738575 -0.00919195 0 200 0
0.298926 0.738456 -0.00944038 0 200 0
0.303918 0.738337 -0.00968881 0 200 0
0.308911 0.738218 -0.00993724 0 200 0
0.313903 0.738099 -0.0101857 0 200 0
0.318895 0.73798 -0.0104341 0 200 0
0.323888 0.737861 -0.0106825 0 200 0
0.32888 0.737742 -0.010931 0 200 0
0.333873 0.737622 -0.0111794 0 200 0
0.338865 0.737503 -0.0114278 0 200 0
0.343858 0.737384 -0.0116763 0 200 0
0.34885 0.737265 -0.0119247 0 200 0
0.353842 0.737146 -0.0121731 0 200 0
0.358835 0.737027 -0.0124215 0 200 0
0.363827 0.736908 -0.01267 0 200 0
0.36882 0.736789 -0.0129184 0 200 0
0.373812 0.736669 -0.0131668 0 200 0
0.378804 0.73655 -0.0134153 0 200 0
0.383797 0.736431 -0.0136637 0 200 0
0.388789 0.736312 -0.0139121 0 200 0
0.393782 0.736193 -0.0141606 0 200 0
0.398774 0.736074 -0.014409 0 200 0
0.403766 0.735955 -0.0146574 0 200 0
0.408759 0.735836 -0.0149059 0 200 0
0.413751 0.735717 -0.0151543 0 200 0
0.418744 0.735597 -0.0154027 0 200 0
0.423736 0.735478 -0.0156511 0 200 0
0.428728 0.735359 -0.0158996 0 200 0
0.433721 0.73524 -0.016148 0 200 0
0.438713 0.735121 -0.0163964 0 200 0
0.443706 0.735002 -0.0166449 0 200 0
0.448698 0.734883 -0.0168933 0 200 0
0.45369 0.734764 -0.0171417 0 200 0
0.458683 0.734645 -0.0173902 0 200 0
0.463675 0.734525 -0.0176386 0 200 0
0.468668 0.734406 -0.017887 0 200 0
0.47366 0.734287 -0.0181355 0 200 0
0.478652 0.734168 -0.0183839 0 200 0
0.483645 0.734049 -0.0186323 0 200 0
0.488637 0.73393 -0.0188808 0 200 0
0.49363 0.733811 -0.0191292 0 200 0
0.498622 0.733692 -0.0193776 0 200 0
0.503614 0.733572 -0.019626 0 200 0
0.508607 0.733453 -0.0198745 0 200 0
0.513599 0.733334 -0.0201229 0 200 0
0.518592 0.733215 -0.0203713 0 200 0
0.523584 0.733096 -0.0206198 0 200 0
0.528576 0.732977 -0.0208682 0 200 0
0.533569 0.732858 -0.0211166 0 200 0
0.538561 0.732739 -0.0213651 0 200 0
0.543554 0.73262 -0.0216135 0 200 0
0.548546 0.7325 -0.0218619 0 200 0
0.553538 0.732381 -0.0221104 0 200 0
0.558531 0.732262 -0.0223588 0 200 0
0.563523 0.732143 -0.0226072 0 200 0
0.568516 0.732024 -0.0228556 0 200 0
0.573508 0.731905 -0.0231041 0 200 0
0.578501 0.731786 -0.0233525 0 200 0
0.583493 0.731667 -0.0236009 0 200 0
0.588485 0.731548 -0.0238494 0 200 0
0.593478 0.731428 -0.0240978 0 200 0
0.59847 0.731309 -0.0243462 0 200 0
0.603463 0.73119 -0.0245947 0 200 0
0.271575 0.958085 0 0 200 0
0.276557 0.957792 -0.000309438 0 200 0
0.281539 0.957499 -0.000618875 0 200 0
0.286521 0.957206 -0.000928313 0 200 0
0.291502 0.956913 -0.00123775 0 200 0
0.296484 0.95662 -0.00154719 0 200 0
0.301466 0.956327 -0.00185663 0 200 0
0.306448 0.956035 -0.00216606 0 200 0
0.31143 0.955742 -0.0024755 0 200 0
0.316412 0.955449 -0.00278494 0 200 0
0.321393 0.955156 -0.00309438 0 200 0
0.326375 0.954863 -0.00340381 0 200 0
0.331357 0.95457 -0.00371325 0 200 0
0.336339 0.954278 -0.00402269 0 200 0
0.341321 0.953985 -0.00433213 0 200 0
0.346302 0.953692 -0.00464156 0 200 0
0.351284 0.953399 -0.004951 0 200 0
0.356266 0.953106 -0.00526044 0 200 0
0.361248 0.952813 -0.00556988 0 200 0
0.36623 0.952521 -0.00587931 0 200 0
0.371211 0.952228 -0.00618875 0 200 0
0.376193 0.951935 -0.00649819 0 200 0
0.381175 0.951642 -0.00680763 0 200 0
0.386157 0.951349 -0.00711706 0 200 0
0.391139 0.951056 -0.0074265 0 200 0
0.396121 0.950763 -0.00773594 0 200 0
0.401102 0.950471 -0.00804538 0 200 0
0.406084 0.950178 -0.00835481 0 200 0
0.411066 0.949885 -0.00866425 0 200 0
0.416048 0.949592 -0.00897369 0 200 0
0.42103 0.949299 -0.00928313 0 200 0
0.426011 0.949006 -0.00959256 0 200 0
0.430993 0.948714 -0.009902 0 200 0
0.435975 0.948421 -0.0102114 0 200 0
0.440957 0.948128 -0.0105209 0 200 0
0.445939 0.947835 -0.0108303 0 200 0
0.450921 0.947542 -0.0111398 0 200 0
0.455902 0.947249 -0.0114492 0 200 0
0.460884 0.946957 -0.0117586 0 200 0
0.465866 0.946664 -0.0120681 0 200 0
0.470848 0.946371 -0.0123775 0 200 0
0.47583 0.946078 -0.0126869 0 200 0
0.480811 0.945785 -0.0129964 0 200 0
0.485793 0.945492 -0.0133058 0 200 0
0.490775 0.945199 -0.0136153 0 200 0
0.495757 0.944907 -0.0139247 0 200 0
0.500739 0.944614 -0.0142341 0 200 0
0.505721 0.944321 -0.0145436 0 200 0
0.510702 0.944028 -0.014853 0 200 0
0.515684 0.943735 -0.0151624 0 200 0
0.520666 0.943442 -0.0154719 0 200 0
0.525648 0.94315 -0.0157813 0 200 0
0.53063 0.942857 -0.0160908 0 200 0
0.535611 0.942564 -0.0164002 0 200 0
0.540593 0.942271 -0.0167096 0 200 0
0.545575 0.941978 -0.0170191 0 200 0
0.550557 0.941685 -0.0173285 0 200 0
0.555539 0.941393 -0.0176379 0 200 0
0.560521 0.9411 -0.0179474 0 200 0
0.565502 0.940807 -0.0182568 0 200 0
0.570484 0.940514 -0.0185663 0 200 0
0.575466 0.940221 -0.0188757 0 200 0
0.580448 0.939928 -0.0191851 0 200 0
0.58543 0.939636 -0.0194946 0 200 0
0.590411 0.939343 -0.019804 0 200 0
0.595393 0.93905 -0.0201134 0 200 0
0.600375 0.938757 -0.0204229 0 200 0
0.605357 0.938464 -0.0207323 0 200 0
0.610339 0.938171 -0.0210418 0 200 0
0.615321 0.937878 -0.0213512 0 200 0
0.620302 0.937586 -0.0216606 0 200 0
0.625284 0.937293 -0.0219701 0 200 0
0.630266 0.937 -0.0222795 0 200 0
0.635248 0.936707 -0.0225889 0 200 0
0.64023 0.936414 -0.0228984 0 200 0
0.645211 0.936121 -0.0232078 0 200 0
0.650193 0.935829 -0.0235173 0 200 0
0.655175 0.935536 -0.0238267 0 200 0
0.660157 0.935243 -0.0241361 0 200 0
0.665139 0.93495 -0.0244456 0 200 0
0.67012 0.934657 -0.024755 0 200 0
0.675102 0.934364 -0.0250644 0 200 0
0.680084 0.934072 -0.0253739 0 200 0
0.685066 0.933779 -0.0256833 0 200 0
0.690048 0.933486 -0.0259928 0 200 0
0.69503 0.933193 -0.0263022 0 200 0
0.700011 0.9329 -0.0266116 0 200 0
0.704993 0.932607 -0.0269211 0 200 0
0.709975 0.932314 -0.0272305 0 200 0
0.714957 0.932022 -0.0275399 0 200 0
0.719939 0.931729 -0.0278494 0 200 0
0.72492 0.931436 -0.0281588 0 200 0
0.729902 0.931143 -0.0284683 0 200 0
0.734884 0.93085 -0.0287777 0 200 0
0.739866 0.930557 -0.0290871 0 200 0
0.744848 0.930265 -0.0293966 0 200 0
0.74983 0.929972 -0.029706 0 200 0
0.754811 0.929679 -0.0300154 0 200 0
0.759793 0.929386 -0.0303249 0 200 0
0.764775 0.929093 -0.0306343 0 200 0
0.453757 1.1179 0 0 200 0
0.458722 1.11748 -0.000408918 0 200 0
0.463688 1.11706 -0.000817836 0 200 0
0.468653 1.11664 -0.00122675 0 200 0
0.473618 1.11622 -0.00163567 0 200 0
0.478584 1.1158 -0.00204459 0 200 0
0.483549 1.11537 -0.00245351 0 200 0
0.488514 1.11495 -0.00286243 0 200 0
0.49348 1.11453 -0.00327135 0 200 0
0.498445 1.11411 -0.00368026 0 200 0
0.503411 1.11369 -0.00408918 0 200 0
0.508376 1.11327 -0.0044981 0 200 0
0.513341 1.11284 -0.00490702 0 200 0
0.518307 1.11242 -0.00531594 0 200 0
0.523272 1.112 -0.00572485 0 200 0
0.528237 1.11158 -0.00613377 0 200 0
0.533203 1.11116 -0.00654269 0 200 0
0.538168 1.11074 -0.00695161 0 200 0
0.543134 1.11031 -0.00736053 0 200 0
0.548099 1.10989 -0.00776945 0 200 0
0.553064 1.10947 -0.00817836 0 200 0
0.55803 1.10905 -0.00858728 0 200 0
0.562995 1.10863 -0.0089962 0 200 0
0.567961 1.10821 -0.00940512 0 200 0
0.572926 1.10778 -0.00981404 0 200 0
0.577891 1.10736 -0.010223 0 200 0
0.582857 1.10694 -0.0106319 0 200 0
0.587822 1.10652 -0.0110408 0 200 0
0.592787 1.1061 -0.0114497 0 200 0
0.597753 1.10568 -0.0118586 0 200 0
0.602718 1.10526 -0.0122675 0 200 0
0.607684 1.10483 -0.0126765 0 200 0
0.612649 1.10441 -0.0130854 0 200 0
0.617614 1.10399 -0.0134943 0 200 0
0.62258 1.10357 -0.0139032 0 200 0
0.627545 1.10315 -0.0143121 0 200 0
0.63251 1.10273 -0.0147211 0 200 0
0.637476 1.1023 -0.01513 0 200 0
0.642441 1.10188 -0.0155389 0 200 0
0.647407 1.10146 -0.0159478 0 200 0
0.652372 1.10104 -0.0163567 0 200 0
0.657337 1.10062 -0.0167656 0 200 0
0.662303 1.1002 -0.0171746 0 200 0
0.667268 1.09977 -0.0175835 0 200 0
0.672234 1.09935 -0.0179924 0 200 0
0.677199 1.09893 -0.0184013 0 200 0
0.682164 1.09851 -0.0188102 0 200 0
0.68713 1.09809 -0.0192192 0 200 0
0.692095 1.09767 -0.0196281 0 200 0
0.69706 1.09724 -0.020037 0 200 0
0.702026 1.09682 -0.0204459 0 200 0
0.706991 1.0964 -0.0208548 0 200 0
0.711957 1.09598 -0.0212637 0 200 0
0.716922 1.09556 -0.0216727 0 200 0
0.721887 1.09514 -0.0220816 0 200 0
0.726853 1.09471 -0.0224905 0 200 0
0.731818 1.09429 -0.0228994 0 200 0
0.736784 1.09387 -0.0233083 0 200 0
0.741749 1.09345 -0.0237173 0 200 0
0.746714 1.09303 -0.0241262 0 200 0
0.75168 1.09261 -0.0245351 0 200 0
0.756645 1.09218 -0.024944 0 200 0
0.76161 1.09176 -0.0253529 0 200 0
0.766576 1.09134 -0.0257618 0 200 0
0.771541 1.09092 -0.0261708 0 200 0
0.776507 1.0905 -0.0265797 0 200 0
0.781472 1.09008 -0.0269886 0 200 0
0.786437 1.08965 -0.0273975 0 200 0
0.791403 1.08923 -0.0278064 0 200 0
0.796368 1.08881 -0.0282154 0 200 0
0.801333 1.08839 -0.0286243 0 200 0
0.806299 1.08797 -0.0290332 0 200 0
0.811264 1.08755 -0.0294421 0 200 0
0.81623 1.08713 -0.029851 0 200 0
0.821195 1.0867 -0.0302599 0 200 0
0.82616 1.08628 -0.0306689 0 200 0
0.831126 1.08586 -0.0310778 0 200 0
0.836091 1.08544 -0.0314867 0 200 0
0.841057 1.08502 -0.0318956 0 200 0
0.846022 1.0846 -0.0323045 0 200 0
0.850987 1.08417 -0.0327135 0 200 0
0.855953 1.08375 -0.0331224 0 200 0
0.860918 1.08333 -0.0335313 0 200 0
0.865883 1.08291 -0.0339402 0 200 0
0.870849 1.08249 -0.0343491 0 200 0
0.875814 1.08207 -0.034758 0 200 0
0.88078 1.08164 -0.035167 0 200 0
0.885745 1.08122 -0.0355759 0 200 0
0.89071 1.0808 -0.0359848 0 200 0
0.895676 1.08038 -0.0363937 0 200 0
0.900641 1.07996 -0.0368026 0 200 0
0.905606 1.07954 -0.0372116 0 200 0
0.910572 1.07911 -0.0376205 0 200 0
0.915537 1.07869 -0.0380294 0 200 0
0.920503 1.07827 -0.0384383 0 200 0
0.925468 1.07785 -0.0388472 0 200 0
0.930433 1.07743 -0.0392561 0 200 0
0.935399 1.07701 -0.0396651 0 200 0
0.940364 1.07658 -0.040074 0 200 0
0.94533 1.07616 -0.0404829 0 200 0
0.66118 1.19095 0 0 200 0
0.666159 1.19049 -5.16991e-05 0 200 0
0.671138 1.19004 -0.000103398 0 200 0
0.676117 1.18958 -0.000155097 0 200 0
0.681096 1.18913 -0.000206797 0 200 0
0.686074 1.18867 -0.000258496 0 200 0
0.691053 1.18821 -0.000310195 0 200 0
0.696032 1.18776 -0.000361894 0 200 0
0.701011 1.1873 -0.000413593 0 200 0
0.70599 1.18685 -0.000465292 0 200 0
0.710969 1.18639 -0.000516991 0 200 0
0.715948 1.18593 -0.000568691 0 200 0
0.720927 1.18548 -0.00062039 0 200 0
0.725906 1.18502 -0.000672089 0 200 0
0.730885 1.18457 -0.000723788 0 200 0
0.735864 1.18411 -0.000775487 0 200 0
0.740842 1.18366 -0.000827186 0 200 0
0.745821 1.1832 -0.000878886 0 200 0
0.7508 1.18274 -0.000930585 0 200 0
0.755779 1.18229 -0.000982284 0 200 0
0.760758 1.18183 -0.00103398 0 200 0
0.765737 1.18138 -0.00108568 0 200 0
0.770716 1.18092 -0.00113738 0 200 0
0.775695 1.18046 -0.00118908 0 200 0
0.780674 1.18001 -0.00124078 0 200 0
0.785653 1.17955 -0.00129248 0 200 0
0.790632 1.1791 -0.00134418 0 200 0
0.79561 1.17864 -0.00139588 0 200 0
0.800589 1.17818 -0.00144758 0 200 0
0.805568 1.17773 -0.00149928 0 200 0
0.810547 1.17727 -0.00155097 0 200 0
0.815526 1.17682 -0.00160267 0 200 0
0.820505 1.17636 -0.00165437 0 200 0
0.825484 1.17591 -0.00170607 0 200 0
0.830463 1.17545 -0.00175777 0 200 0
0.835442 1.17499 -0.00180947 0 200 0
0.840421 1.17454 -0.00186117 0 200 0
0.845399 1.17408 -0.00191287 0 200 0
0.850378 1.17363 -0.00196457 0 200 0
0.855357 1.17317 -0.00201627 0 200 0
0.860336 1.17271 -0.00206797 0 200 0
0.865315 1.17226 -0.00211967 0 200 0
0.870294 1.1718 -0.00217136 0 200 0
0.875273 1.17135 -0.00222306 0 200 0
0.880252 1.17089 -0.00227476 0 200 0
0.885231 1.17043 -0.00232646 0 200 0
0.89021 1.16998 -0.00237816 0 200 0
0.895189 1.16952 -0.00242986 0 200 0
0.900167 1.16907 -0.00248156 0 200 0
0.905146 1.16861 -0.00253326 0 200 0
0.910125 1.16816 -0.00258496 0 200 0
0.915104 1.1677 -0.00263666 0 200 0
0.920083 1.16724 -0.00268836 0 200 0
0.925062 1.16679 -0.00274005 0 200 0
0.930041 1.16633 -0.00279175 0 200 0
0.93502 1.16588 -0.00284345 0 200 0
0.939999 1.16542 -0.00289515 0 200 0
0.944978 1.16496 -0.00294685 0 200 0
0.949957 1.16451 -0.00299855 0 200 0
0.954935 1.16405 -0.00305025 0 200 0
0.959914 1.1636 -0.00310195 0 200 0
0.964893 1.16314 -0.00315365 0 200 0
0.969872 1.16269 -0.00320535 0 200 0
0.974851 1.16223 -0.00325705 0 200 0
0.97983 1.16177 -0.00330875 0 200 0
0.984809 1.16132 -0.00336044 0 200 0
0.989788 1.16086 -0.00341214 0 200 0
0.994767 1.16041 -0.00346384 0 200 0
0.999746 1.15995 -0.00351554 0 200 0
1.00472 1.15949 -0.00356724 0 200 0
1.0097 1.15904 -0.00361894 0 200 0
1.01468 1.15858 -0.00367064 0 200 0
1.01966 1.15813 -0.00372234 0 200 0
1.02464 1.15767 -0.00377404 0 200 0
1.02962 1.15721 -0.00382574 0 200 0
1.0346 1.15676 -0.00387744 0 200 0
1.03958 1.1563 -0.00392914 0 200 0
1.04456 1.15585 -0.00398083 0 200 0
1.04953 1.15539 -0.00403253 0 200 0
1.05451 1.15494 -0.00408423 0 200 0
1.05949 1.15448 -0.00413593 0 200 0
1.06447 1.15402 -0.00418763 0 200 0
1.06945 1.15357 -0.00423933 0 200 0
1.07443 1.15311 -0.00429103 0 200 0
1.07941 1.15266 -0.00434273 0 200 0
1.08439 1.1522 -0.00439443 0 200 0
1.08937 1.15174 -0.00444613 0 200 0
1.09434 1.15129 -0.00449783 0 200 0
1.09932 1.15083 -0.00454953 0 200 0
1.1043 1.15038 -0.00460122 0 200 0
1.10928 1.14992 -0.00465292 0 200 0
1.11426 1.14946 -0.00470462 0 200 0
1.11924 1.14901 -0.00475632 0 200 0
1.12422 1.14855 -0.00480802 0 200 0
1.1292 1.1481 -0.00485972 0 200 0
1.13418 1.14764 -0.00491142 0 200 0
1.13915 1.14719 -0.00496312 0 200 0
1.14413 1.14673 -0.00501482 0 200 0
1.14911 1.14627 -0.00506652 0 200 0
1.15409 1.14582 -0.00511822 0 200 0
0.858961 1.11623 0 0 200 0
0.86395 1.11591 8.5771e-05 0 200 0
0.868939 1.11559 0.000171542 0 200 0
0.873928 1.11527 0.000257313 0 200 0
0.878917 1.11495 0.000343084 0 200 0
0.883906 1.11463 0.000428855 0 200 0
0.888895 1.11431 0.000514626 0 200 0
0.893885 1.11399 0.000600397 0 200 0
0.898874 1.11367 0.000686168 0 200 0
0.903863 1.11335 0.000771939 0 200 0
0.908852 1.11304 0.00085771 0 200 0
0.913841 1.11272 0.000943481 0 200 0
0.91883 1.1124 0.00102925 0 200 0
0.923819 1.11208 0.00111502 0 200 0
0.928808 1.11176 0.00120079 0 200 0
0.933797 1.11144 0.00128656 0 200 0
0.938786 1.11112 0.00137234 0 200 0
0.943775 1.1108 0.00145811 0 200 0
0.948764 1.11048 0.00154388 0 200 0
0.953753 1.11016 0.00162965 0 200 0
0.958742 1.10984 0.00171542 0 200 0
0.963731 1.10953 0.00180119 0 200 0
0.968721 1.10921 0.00188696 0 200 0
0.97371 1.10889 0.00197273 0 200 0
0.978699 1.10857 0.0020585 0 200 0
0.983688 1.10825 0.00214427 0 200 0
0.988677 1.10793 0.00223004 0 200 0
0.993666 1.10761 0.00231582 0 200 0
0.998655 1.10729 0.00240159 0 200 0
1.00364 1.10697 0.00248736 0 200 0
1.00863 1.10665 0.00257313 0 200 0
1.01362 1.10633 0.0026589 0 200 0
1.01861 1.10601 0.00274467 0 200 0
1.0236 1.1057 0.00283044 0 200 0
1.02859 1.10538 0.00291621 0 200 0
1.03358 1.10506 0.00300198 0 200 0
1.03857 1.10474 0.00308775 0 200 0
1.04356 1.10442 0.00317353 0 200 0
1.04855 1.1041 0.0032593 0 200 0
1.05353 1.10378 0.00334507 0 200 0
1.05852 1.10346 0.00343084 0 200 0
1.06351 1.10314 0.00351661 0 200 0
1.0685 1.10282 0.00360238 0 200 0
1.07349 1.1025 0.00368815 0 200 0
1.07848 1.10219 0.00377392 0 200 0
1.08347 1.10187 0.00385969 0 200 0
1.08846 1.10155 0.00394546 0 200 0
1.09345 1.10123 0.00403123 0 200 0
1.09844 1.10091 0.00411701 0 200 0
1.10343 1.10059 0.00420278 0 200 0
1.10841 1.10027 0.00428855 0 200 0
1.1134 1.09995 0.00437432 0 200 0
1.11839 1.09963 0.00446009 0 200 0
1.12338 1.09931 0.00454586 0 200 0
1.12837 1.09899 0.00463163 0 200 0
1.13336 1.09867 0.0047174 0 200 0
1.13835 1.09836 0.00480317 0 200 0
1.14334 1.09804 0.00488894 0 200 0
1.14833 1.09772 0.00497472 0 200 0
1.15332 1.0974 0.00506049 0 200 0
1.15831 1.09708 0.00514626 0 200 0
1.16329 1.09676 0.00523203 0 200 0
1.16828 1.09644 0.0053178 0 200 0
1.17327 1.09612 0.00540357 0 200 0
1.17826 1.0958 0.00548934 0 200 0
1.18325 1.09548 0.00557511 0 200 0
1.18824 1.09516 0.00566088 0 200 0
1.19323 1.09484 0.00574665 0 200 0
1.19822 1.09453 0.00583243 0 200 0
1.20321 1.09421 0.0059182 0 200 0
1.2082 1.09389 0.00600397 0 200 0
1.21318 1.09357 0.00608974 0 200 0
1.21817 1.09325 0.00617551 0 200 0
1.22316 1.09293 0.00626128 0 200 0
1.22815 1.09261 0.00634705 0 200 0
1.23314 1.09229 0.00643282 0 200 0
1.23813 1.09197 0.00651859 0 200 0
1.24312 1.09165 0.00660436 0 200 0
1.24811 1.09133 0.00669013 0 200 0
1.2531 1.09102 0.00677591 0 200 0
1.25809 1.0907 0.00686168 0 200 0
1.26308 1.09038 0.00694745 0 200 0
1.26806 1.09006 0.00703322 0 200 0
1.27305 1.08974 0.00711899 0 200 0
1.27804 1.08942 0.00720476 0 200 0
1.28303 1.0891 0.00729053 0 200 0
1.28802 1.08878 0.0073763 0 200 0
1.29301 1.08846 0.00746207 0 200 0
1.298 1.08814 0.00754784 0 200 0
1.30299 1.08782 0.00763362 0 200 0
1.30798 1.0875 0.00771939 0 200 0
1.31297 1.08719 0.00780516 0 200 0
1.31796 1.08687 0.00789093 0 200 0
1.32294 1.08655 0.0079767 0 200 0
1.32793 1.08623 0.00806247 0 200 0
1.33292 1.08591 0.00814824 0 200 0
1.33791 1.08559 0.00823401 0 200 0
1.3429 1.08527 0.00831978 0 200 0
1.34789 1.08495 0.00840555 0 200 0
1.35288 1.08463 0.00849133 0 200 0
1.06982 0.898212 0 0 200 0
1.07482 0.898088 -0.00017922 0 200 0
1.07981 0.897963 -0.00035844 0 200 0
1.08481 0.897839 -0.00053766 0 200 0
1.0898 0.897714 -0.00071688 0 200 0
1.0948 0.89759 -0.0008961 0 200 0
1.09979 0.897466 -0.00107532 0 200 0
1.10479 0.897341 -0.00125454 0 200 0
1.10978 0.897217 -0.00143376 0 200 0
1.11478 0.897093 -0.00161298 0 200 0
1.11978 0.896968 -0.0017922 0 200 0
1.12477 0.896844 -0.00197142 0 200 0
1.12977 0.89672 -0.00215064 0 200 0
1.13476 0.896595 -0.00232986 0 200 0
1.13976 0.896471 -0.00250908 0 200 0
1.14475 0.896346 -0.0026883 0 200 0
1.14975 0.896222 -0.00286752 0 200 0
1.15474 0.896098 -0.00304674 0 200 0
1.15974 0.895973 -0.00322596 0 200 0
1.16473 0.895849 -0.00340518 0 200 0
1.16973 0.895725 -0.0035844 0 200 0
1.17472 0.8956 -0.00376362 0 200 0
1.17972 0.895476 -0.00394284 0 200 0
1.18471 0.895351 -0.00412206 0 200 0
1.18971 0.895227 -0.00430128 0 200 0
1.1947 0.895103 -0.0044805 0 200 0
1.1997 0.894978 -0.00465972 0 200 0
1.20469 0.894854 -0.00483894 0 200 0
1.20969 0.89473 -0.00501816 0 200 0
1.21468 0.894605 -0.00519738 0 200 0
1.21968 0.894481 -0.0053766 0 200 0
1.22468 0.894357 -0.00555582 0 200 0
1.22967 0.894232 -0.00573504 0 200 0
1.23467 0.894108 -0.00591426 0 200 0
1.23966 0.893983 -0.00609348 0 200 0
1.24466 0.893859 -0.0062727 0 200 0
1.24965 0.893735 -0.00645192 0 200 0
1.25465 0.89361 -0.00663114 0 200 0
1.25964 0.893486 -0.00681036 0 200 0
1.26464 0.893362 -0.00698958 0 200 0
1.26963 0.893237 -0.0071688 0 200 0
1.27463 0.893113 -0.00734802 0 200 0
1.27962 0.892989 -0.00752724 0 200 0
1.28462 0.892864 -0.00770646 0 200 0
1.28961 0.89274 -0.00788568 0 200 0
1.29461 0.892615 -0.0080649 0 200 0
1.2996 0.892491 -0.00824412 0 200 0
1.3046 0.892367 -0.00842334 0 200 0
1.30959 0.892242 -0.00860256 0 200 0
1.31459 0.892118 -0.00878178 0 200 0
1.31958 0.891994 -0.008961 0 200 0
1.32458 0.891869 -0.00914022 0 200 0
1.32958 0.891745 -0.00931944 0 200 0
1.33457 0.891621 -0.00949866 0 200 0
1.33957 0.891496 -0.00967788 0 200 0
1.34456 0.891372 -0.0098571 0 200 0
1.34956 0.891247 -0.0100363 0 200 0
1.35455 0.891123 -0.0102155 0 200 0
1.35955 0.890999 -0.0103948 0 200 0
1.36454 0.890874 -0.010574 0 200 0
1.36954 0.89075 -0.0107532 0 200 0
1.37453 0.890626 -0.0109324 0 200 0
1.37953 0.890501 -0.0111116 0 200 0
1.38452 0.890377 -0.0112909 0 200 0
1.38952 0.890252 -0.0114701 0 200 0
1.39451 0.890128 -0.0116493 0 200 0
1.39951 0.890004 -0.0118285 0 200 0
1.4045 0.889879 -0.0120077 0 200 0
1.4095 0.889755 -0.012187 0 200 0
1.41449 0.889631 -0.0123662 0 200 0
1.41949 0.889506 -0.0125454 0 200 0
1.42448 0.889382 -0.0127246 0 200 0
1.42948 0.889258 -0.0129038 0 200 0
1.43448 0.889133 -0.0130831 0 200 0
1.43947 0.889009 -0.0132623 0 200 0
1.44447 0.888884 -0.0134415 0 200 0
1.44946 0.88876 -0.0136207 0 200 0
1.45446 0.888636 -0.0137999 0 200 0
1.45945 0.888511 -0.0139792 0 200 0
1.46445 0.888387 -0.0141584 0 200 0
1.46944 0.888263 -0.0143376 0 200 0
1.47444 0.888138 -0.0145168 0 200 0
1.47943 0.888014 -0.014696 0 200 0
1.48443 0.88789 -0.0148753 0 200 0
1.48942 0.887765 -0.0150545 0 200 0
1.49442 0.887641 -0.0152337 0 200 0
1.49941 0.887516 -0.0154129 0 200 0
1.50441 0.887392 -0.0155921 0 200 0
1.5094 0.887268 -0.0157714 0 200 0
1.5144 0.887143 -0.0159506 0 200 0
1.51939 0.887019 -0.0161298 0 200 0
1.52439 0.886895 -0.016309 0 200 0
1.52938 0.88677 -0.0164882 0 200 0
1.53438 0.886646 -0.0166675 0 200 0
1.53938 0.886521 -0.0168467 0 200 0
1.54437 0.886397 -0.0170259 0 200 0
1.54937 0.886273 -0.0172051 0 200 0
1.55436 0.886148 -0.0173843 0 200 0
1.55936 0.886024 -0.0175636 0 200 0
1.56435 0.8859 -0.0177428 0 200 0
1.26658 0.553503 0 0 200 0
1.27155 0.553962 -8.1389e-05 0 200 0
1.27653 0.554421 -0.000162778 0 200 0
1.28151 0.554879 -0.000244167 0 200 0
1.28649 0.555338 -0.000325556 0 200 0
1.29147 0.555796 -0.000406945 0 200 0
1.29644 0.556255 -0.000488334 0 200 0
1.30142 0.556714 -0.000569723 0 200 0
1.3064 0.557172 -0.000651112 0 200 0
1.31138 0.557631 -0.000732501 0 200 0
1.31636 0.55809 -0.00081389 0 200 0
1.32134 0.558548 -0.000895279 0 200 0
1.32631 0.559007 -0.000976668 0 200 0
1.33129 0.559465 -0.00105806 0 200 0
1.33627 0.559924 -0.00113945 0 200 0
1.34125 0.560383 -0.00122084 0 200 0
1.34623 0.560841 -0.00130222 0 200 0
1.35121 0.5613 -0.00138361 0 200 0
1.35618 0.561759 -0.001465 0 200 0
1.36116 0.562217 -0.00154639 0 200 0
1.36614 0.562676 -0.00162778 0 200 0
1.37112 0.563134 -0.00170917 0 200 0
1.3761 0.563593 -0.00179056 0 200 0
1.38108 0.564052 -0.00187195 0 200 0
1.38605 0.56451 -0.00195334 0 200 0
1.39103 0.564969 -0.00203473 0 200 0
1.39601 0.565427 -0.00211611 0 200 0
1.40099 0.565886 -0.0021975 0 200 0
1.40597 0.566345 -0.00227889 0 200 0
1.41094 0.566803 -0.00236028 0 200 0
1.41592 0.567262 -0.00244167 0 200 0
1.4209 0.567721 -0.00252306 0 200 0
1.42588 0.568179 -0.00260445 0 200 0
1.43086 0.568638 -0.00268584 0 200 0
1.43584 0.569096 -0.00276723 0 200 0
1.44081 0.569555 -0.00284862 0 200 0
1.44579 0.570014 -0.00293001 0 200 0
1.45077 0.570472 -0.00301139 0 200 0
1.45575 0.570931 -0.00309278 0 200 0
1.46073 0.571389 -0.00317417 0 200 0
1.46571 0.571848 -0.00325556 0 200 0
1.47068 0.572307 -0.00333695 0 200 0
1.47566 0.572765 -0.00341834 0 200 0
1.48064 0.573224 -0.00349973 0 200 0
1.48562 0.573683 -0.00358112 0 200 0
1.4906 0.574141 -0.00366251 0 200 0
1.49557 0.5746 -0.0037439 0 200 0
1.50055 0.575058 -0.00382528 0 200 0
1.50553 0.575517 -0.00390667 0 200 0
1.51051 0.575976 -0.00398806 0 200 0
1.51549 0.576434 -0.00406945 0 200 0
1.52047 0.576893 -0.00415084 0 200 0
1.52544 0.577352 -0.00423223 0 200 0
1.53042 0.57781 -0.00431362 0 200 0
1.5354 0.578269 -0.00439501 0 200 0
1.54038 0.578727 -0.0044764 0 200 0
1.54536 0.579186 -0.00455779 0 200 0
1.55034 0.579645 -0.00463917 0 200 0
1.55531 0.580103 -0.00472056 0 200 0
1.56029 0.580562 -0.00480195 0 200 0
1.56527 0.581021 -0.00488334 0 200 0
1.57025 0.581479 -0.00496473 0 200 0
1.57523 0.581938 -0.00504612 0 200 0
1.58021 0.582396 -0.00512751 0 200 0
1.58518 0.582855 -0.0052089 0 200 0
1.59016 0.583314 -0.00529029 0 200 0
1.59514 0.583772 -0.00537168 0 200 0
1.60012 0.584231 -0.00545307 0 200 0
1.6051 0.584689 -0.00553445 0 200 0
1.61007 0.585148 -0.00561584 0 200 0
1.61505 0.585607 -0.00569723 0 200 0
1.62003 0.586065 -0.00577862 0 200 0
1.62501 0.586524 -0.00586001 0 200 0
1.62999 0.586983 -0.0059414 0 200 0
1.63497 0.587441 -0.00602279 0 200 0
1.63994 0.5879 -0.00610418 0 200 0
1.64492 0.588358 -0.00618557 0 200 0
1.6499 0.588817 -0.00626696 0 200 0
1.65488 0.589276 -0.00634834 0 200 0
1.65986 0.589734 -0.00642973 0 200 0
1.66484 0.590193 -0.00651112 0 200 0
1.66981 0.590652 -0.00659251 0 200 0
1.67479 0.59111 -0.0066739 0 200 0
1.67977 0.591569 -0.00675529 0 200 0
1.68475 0.592027 -0.00683668 0 200 0
1.68973 0.592486 -0.00691807 0 200 0
1.69471 0.592945 -0.00699946 0 200 0
1.69968 0.593403 -0.00708085 0 200 0
1.70466 0.593862 -0.00716223 0 200 0
1.70964 0.59432 -0.00724362 0 200 0
1.71462 0.594779 -0.00732501 0 200 0
1.7196 0.595238 -0.0074064 0 200 0
1.72457 0.595696 -0.00748779 0 200 0
1.72955 0.596155 -0.00756918 0 200 0
1.73453 0.596614 -0.00765057 0 200 0
1.73951 0.597072 -0.00773196 0 200 0
1.74449 0.597531 -0.00781335 0 200 0
1.74947 0.597989 -0.00789474 0 200 0
1.75444 0.598448 -0.00797612 0 200 0
1.75942 0.598907 -0.00805751 0 200 0
1.47247 0.182577 0 0 200 0
1.47747 0.182525 -0.000138311 0 200 0
1.48247 0.182473 -0.000276622 0 200 0
1.48746 0.18242 -0.000414932 0 200 0
1.49246 0.182368 -0.000553243 0 200 0
1.49746 0.182316 -0.000691554 0 200 0
1.50246 0.182263 -0.000829865 0 200 0
1.50746 0.182211 -0.000968176 0 200 0
1.51245 0.182159 -0.00110649 0 200 0
1.51745 0.182106 -0.0012448 0 200 0
1.52245 0.182054 -0.00138311 0 200 0
1.52745 0.182002 -0.00152142 0 200 0
1.53244 0.181949 -0.00165973 0 200 0
1.53744 0.181897 -0.00179804 0 200 0
1.54244 0.181845 -0.00193635 0 200 0
1.54744 0.181792 -0.00207466 0 200 0
1.55244 0.18174 -0.00221297 0 200 0
1.55743 0.181687 -0.00235128 0 200 0
1.56243 0.181635 -0.00248959 0 200 0
1.56743 0.181583 -0.00262791 0 200 0
1.57243 0.18153 -0.00276622 0 200 0
1.57742 0.181478 -0.00290453 0 200 0
1.58242 0.181426 -0.00304284 0 200 0
1.58742 0.181373 -0.00318115 0 200 0
1.59242 0.181321 -0.00331946 0 200 0
1.59742 0.181269 -0.00345777 0 200 0
1.60241 0.181216 -0.00359608 0 200 0
1.60741 0.181164 -0.00373439 0 200 0
1.61241 0.181112 -0.0038727 0 200 0
1.61741 0.181059 -0.00401101 0 200 0
1.62241 0.181007 -0.00414933 0 200 0
1.6274 0.180955 -0.00428764 0 200 0
1.6324 0.180902 -0.00442595 0 200 0
1.6374 0.18085 -0.00456426 0 200 0
1.6424 0.180798 -0.00470257 0 200 0
1.64739 0.180745 -0.00484088 0 200 0
1.65239 0.180693 -0.00497919 0 200 0
1.65739 0.180641 -0.0051175 0 200 0
1.66239 0.180588 -0.00525581 0 200 0
1.66739 0.180536 -0.00539412 0 200 0
1.67238 0.180484 -0.00553243 0 200 0
1.67738 0.180431 -0.00567074 0 200 0
1.68238 0.180379 -0.00580906 0 200 0
1.68738 0.180327 -0.00594737 0 200 0
1.69237 0.180274 -0.00608568 0 200 0
1.69737 0.180222 -0.00622399 0 200 0
1.70237 0.18017 -0.0063623 0 200 0
1.70737 0.180117 -0.00650061 0 200 0
1.71237 0.180065 -0.00663892 0 200 0
1.71736 0.180013 -0.00677723 0 200 0
1.72236 0.17996 -0.00691554 0 200 0
1.72736 0.179908 -0.00705385 0 200 0
1.73236 0.179856 -0.00719216 0 200 0
1.73735 0.179803 -0.00733047 0 200 0
1.74235 0.179751 -0.00746879 0 200 0
1.74735 0.179699 -0.0076071 0 200 0
1.75235 0.179646 -0.00774541 0 200 0
1.75735 0.179594 -0.00788372 0 200 0
1.76234 0.179541 -0.00802203 0 200 0
1.76734 0.179489 -0.00816034 0 200 0
1.77234 0.179437 -0.00829865 0 200 0
1.77734 0.179384 -0.00843696 0 200 0
1.78234 0.179332 -0.00857527 0 200 0
1.78733 0.17928 -0.00871358 0 200 0
1.79233 0.179227 -0.00885189 0 200 0
1.79733 0.179175 -0.0089902 0 200 0
1.80233 0.179123 -0.00912852 0 200 0
1.80732 0.17907 -0.00926683 0 200 0
1.81232 0.179018 -0.00940514 0 200 0
1.81732 0.178966 -0.00954345 0 200 0
1.82232 0.178913 -0.00968176 0 200 0
1.82732 0.178861 -0.00982007 0 200 0
1.83231 0.178809 -0.00995838 0 200 0
1.83731 0.178756 -0.0100967 0 200 0
1.84231 0.178704 -0.010235 0 200 0
1.84731 0.178652 -0.0103733 0 200 0
1.8523 0.178599 -0.0105116 0 200 0
1.8573 0.178547 -0.0106499 0 200 0
1.8623 0.178495 -0.0107882 0 200 0
1.8673 0.178442 -0.0109266 0 200 0
1.8723 0.17839 -0.0110649 0 200 0
1.87729 0.178338 -0.0112032 0 200 0
1.88229 0.178285 -0.0113415 0 200 0
1.88729 0.178233 -0.0114798 0 200 0
1.89229 0.178181 -0.0116181 0 200 0
1.89728 0.178128 -0.0117564 0 200 0
1.90228 0.178076 -0.0118947 0 200 0
1.90728 0.178024 -0.012033 0 200 0
