ply
format ascii 1.0
element vertex 1283
property float x
property float y
property float z
property uchar red
property uchar green
property uchar blue
element face 0
property list uchar int vertex_indices
end_header
-21.2241 -45.148 -0.0210814 0 200 0
-21.229 -45.1487 -0.0212987 0 200 0
-21.234 -45.1495 -0.0215161 0 200 0
-21.7838 -45.69 0 0 200 0
-21.7888 -45.6905 9.37485e-05 0 200 0
-21.7938 -45.6909 0.000187497 0 200 0
-21.7988 -45.6913 0.000281245 0 200 0
-21.8037 -45.6917 0.000374994 0 200 0
-21.8087 -45.6921 0.000468742 0 200 0
-21.8137 -45.6925 0.000562491 0 200 0
-21.8187 -45.693 0.000656239 0 200 0
-21.8237 -45.6934 0.000749988 0 200 0
-21.8287 -45.6938 0.000843736 0 200 0
-21.8336 -45.6942 0.000937485 0 200 0
-21.8386 -45.6946 0.00103123 0 200 0
-21.8436 -45.6951 0.00112498 0 200 0
-21.8486 -45.6955 0.00121873 0 200 0
-21.8536 -45.6959 0.00131248 0 200 0
-21.8585 -45.6963 0.00140623 0 200 0
-21.8635 -45.6967 0.00149998 0 200 0
-21.8685 -45.6971 0.00159372 0 200 0
-21.8735 -45.6976 0.00168747 0 200 0
-21.8785 -45.698 0.00178122 0 200 0
-21.8835 -45.6984 0.00187497 0 200 0
-21.8884 -45.6988 0.00196872 0 200 0
-21.8934 -45.6992 0.00206247 0 200 0
-21.8984 -45.6997 0.00215621 0 200 0
-21.9034 -45.7001 0.00224996 0 200 0
-21.9084 -45.7005 0.00234371 0 200 0
-21.9133 -45.7009 0.00243746 0 200 0
-21.9183 -45.7013 0.00253121 0 200 0
-21.9233 -45.7017 0.00262496 0 200 0
-21.9283 -45.7022 0.00271871 0 200 0
-21.9333 -45.7026 0.00281245 0 200 0
-21.9383 -45.703 0.0029062 0 200 0
-21.9432 -45.7034 0.00299995 0 200 0
-21.9482 -45.7038 0.0030937 0 200 0
-21.9532 -45.7043 0.00318745 0 200 0
-21.9582 -45.7047 0.0032812 0 200 0
-21.9632 -45.7051 0.00337494 0 200 0
-21.9681 -45.7055 0.00346869 0 200 0
-21.9731 -45.7059 0.00356244 0 200 0
-21.9781 -45.7063 0.00365619 0 200 0
-21.9831 -45.7068 0.00374994 0 200 0
-21.9881 -45.7072 0.00384369 0 200 0
-21.9931 -45.7076 0.00393744 0 200 0
-21.998 -45.708 0.00403118 0 200 0
-22.003 -45.7084 0.00412493 0 200 0
-22.008 -45.7089 0.00421868 0 200 0
-22.013 -45.7093 0.00431243 0 200 0
-22.018 -45.7097 0.00440618 0 200 0
-22.0229 -45.7101 0.00449993 0 200 0
-22.0279 -45.7105 0.00459367 0 200 0
-22.0329 -45.7109 0.00468742 0 200 0
-22.0379 -45.7114 0.00478117 0 200 0
-22.0429 -45.7118 0.00487492 0 200 0
-22.0478 -45.7122 0.00496867 0 200 0
-22.0528 -45.7126 0.00506242 0 200 0
-22.0578 -45.713 0.00515617 0 200 0
-22.0628 -45.7135 0.00524991 0 200 0
-22.0678 -45.7139 0.00534366 0 200 0
-22.0728 -45.7143 0.00543741 0 200 0
-22.0777 -45.7147 0.00553116 0 200 0
-22.0827 -45.7151 0.00562491 0 200 0
-22.0877 -45.7155 0.00571866 0 200 0
-22.0927 -45.716 0.0058124 0 200 0
-22.0977 -45.7164 0.00590615 0 200 0
-22.1026 -45.7168 0.0059999 0 200 0
-22.1076 -45.7172 0.00609365 0 200 0
-22.1126 -45.7176 0.0061874 0 200 0
-22.1176 -45.7181 0.00628115 0 200 0
-22.1226 -45.7185 0.0063749 0 200 0
-22.1276 -45.7189 0.00646864 0 200 0
-22.1325 -45.7193 0.00656239 0 200 0
-22.1375 -45.7197 0.00665614 0 200 0
-22.1425 -45.7201 0.00674989 0 200 0
-22.1475 -45.7206 0.00684364 0 200 0
-22.1525 -45.721 0.00693739 0 200 0
-22.1574 -45.7214 0.00703113 0 200 0
-22.1624 -45.7218 0.00712488 0 200 0
-22.1674 -45.7222 0.00721863 0 200 0
-22.1724 -45.7227 0.00731238 0 200 0
-22.1774 -45.7231 0.00740613 0 200 0
-22.1824 -45.7235 0.00749988 0 200 0
-22.1873 -45.7239 0.00759363 0 200 0
-22.1923 -45.7243 0.00768737 0 200 0
-22.1973 -45.7247 0.00778112 0 200 0
-22.2023 -45.7252 0.00787487 0 200 0
-22.2073 -45.7256 0.00796862 0 200 0
-22.2122 -45.726 0.00806237 0 200 0
-22.2172 -45.7264 0.00815612 0 200 0
-22.2222 -45.7268 0.00824986 0 200 0
-22.2272 -45.7273 0.00834361 0 200 0
-22.2322 -45.7277 0.00843736 0 200 0
-22.2372 -45.7281 0.00853111 0 200 0
-22.2421 -45.7285 0.00862486 0 200 0
-22.2471 -45.7289 0.00871861 0 200 0
-22.2521 -45.7293 0.00881236 0 200 0
-22.2571 -45.7298 0.0089061 0 200 0
-22.2621 -45.7302 0.00899985 0 200 0
-22.267 -45.7306 0.0090936 0 200 0
-22.272 -45.731 0.00918735 0 200 0
-22.277 -45.7314 0.0092811 0 200 0
-22.8031 -46.2997 0 0 200 0
-22.808 -46.3002 0.000117543 0 200 0
-22.813 -46.3008 0.000235085 0 200 0
-22.818 -46.3013 0.000352628 0 200 0
-22.8229 -46.3019 0.000470171 0 200 0
-22.8279 -46.3024 0.000587714 0 200 0
-22.8329 -46.303 0.000705256 0 200 0
-22.8378 -46.3036 0.000822799 0 200 0
-22.8428 -46.3041 0.000940342 0 200 0
-22.8478 -46.3047 0.00105788 0 200 0
-22.8528 -46.3052 0.00117543 0 200 0
-22.8577 -46.3058 0.00129297 0 200 0
-22.8627 -46.3063 0.00141051 0 200 0
-22.8677 -46.3069 0.00152806 0 200 0
-22.8726 -46.3074 0.0016456 0 200 0
-22.8776 -46.308 0.00176314 0 200 0
-22.8826 -46.3086 0.00188068 0 200 0
-22.8875 -46.3091 0.00199823 0 200 0
-22.8925 -46.3097 0.00211577 0 200 0
-22.8975 -46.3102 0.00223331 0 200 0
-22.9024 -46.3108 0.00235085 0 200 0
-22.9074 -46.3113 0.0024684 0 200 0
-22.9124 -46.3119 0.00258594 0 200 0
-22.9173 -46.3124 0.00270348 0 200 0
-22.9223 -46.313 0.00282103 0 200 0
-22.9273 -46.3136 0.00293857 0 200 0
-22.9322 -46.3141 0.00305611 0 200 0
-22.9372 -46.3147 0.00317365 0 200 0
-22.9422 -46.3152 0.0032912 0 200 0
-22.9471 -46.3158 0.00340874 0 200 0
-22.9521 -46.3163 0.00352628 0 200 0
-22.9571 -46.3169 0.00364383 0 200 0
-22.962 -46.3175 0.00376137 0 200 0
-22.967 -46.318 0.00387891 0 200 0
-22.972 -46.3186 0.00399645 0 200 0
-22.9769 -46.3191 0.004114 0 200 0
-22.9819 -46.3197 0.00423154 0 200 0
-22.9869 -46.3202 0.00434908 0 200 0
-22.9918 -46.3208 0.00446662 0 200 0
-22.9968 -46.3213 0.00458417 0 200 0
-23.0018 -46.3219 0.00470171 0 200 0
-23.0067 -46.3225 0.00481925 0 200 0
-23.0117 -46.323 0.0049368 0 200 0
-23.0167 -46.3236 0.00505434 0 200 0
-23.0217 -46.3241 0.00517188 0 200 0
-23.0266 -46.3247 0.00528942 0 200 0
-23.0316 -46.3252 0.00540697 0 200 0
-23.0366 -46.3258 0.00552451 0 200 0
-23.0415 -46.3263 0.00564205 0 200 0
-23.0465 -46.3269 0.00575959 0 200 0
-23.0515 -46.3275 0.00587714 0 200 0
-23.0564 -46.328 0.00599468 0 200 0
-23.0614 -46.3286 0.00611222 0 200 0
-23.0664 -46.3291 0.00622977 0 200 0
-23.0713 -46.3297 0.00634731 0 200 0
-23.0763 -46.3302 0.00646485 0 200 0
-23.0813 -46.3308 0.00658239 0 200 0
-23.0862 -46.3313 0.00669994 0 200 0
-23.0912 -46.3319 0.00681748 0 200 0
-23.0962 -46.3325 0.00693502 0 200 0
-23.1011 -46.333 0.00705256 0 200 0
-23.1061 -46.3336 0.00717011 0 200 0
-23.1111 -46.3341 0.00728765 0 200 0
-23.116 -46.3347 0.00740519 0 200 0
-23.121 -46.3352 0.00752274 0 200 0
-23.126 -46.3358 0.00764028 0 200 0
-23.1309 -46.3364 0.00775782 0 200 0
-23.1359 -46.3369 0.00787536 0 200 0
-23.1409 -46.3375 0.00799291 0 200 0
-23.1458 -46.338 0.00811045 0 200 0
-23.1508 -46.3386 0.00822799 0 200 0
-23.1558 -46.3391 0.00834554 0 200 0
-23.1607 -46.3397 0.00846308 0 200 0
-23.1657 -46.3402 0.00858062 0 200 0
-23.1707 -46.3408 0.00869816 0 200 0
-23.1756 -46.3414 0.00881571 0 200 0
-23.1806 -46.3419 0.00893325 0 200 0
-23.1856 -46.3425 0.00905079 0 200 0
-23.1905 -46.343 0.00916833 0 200 0
-23.1955 -46.3436 0.00928588 0 200 0
-23.2005 -46.3441 0.00940342 0 200 0
-23.2055 -46.3447 0.00952096 0 200 0
-23.2104 -46.3452 0.00963851 0 200 0
-23.2154 -46.3458 0.00975605 0 200 0
-23.2204 -46.3464 0.00987359 0 200 0
-23.2253 -46.3469 0.00999113 0 200 0
-23.2303 -46.3475 0.0101087 0 200 0
-23.2353 -46.348 0.0102262 0 200 0
-23.2402 -46.3486 0.0103438 0 200 0
-23.2452 -46.3491 0.0104613 0 200 0
-23.2502 -46.3497 0.0105788 0 200 0
-23.2551 -46.3503 0.0106964 0 200 0
-23.2601 -46.3508 0.0108139 0 200 0
-23.2651 -46.3514 0.0109315 0 200 0
-23.27 -46.3519 0.011049 0 200 0
-23.275 -46.3525 0.0111666 0 200 0
-23.28 -46.353 0.0112841 0 200 0
-23.2849 -46.3536 0.0114016 0 200 0
-23.2899 -46.3541 0.0115192 0 200 0
-23.2949 -46.3547 0.0116367 0 200 0
-23.8249 -46.8662 0 0 200 0
-23.8298 -46.8667 -2.95107e-06 0 200 0
-23.8348 -46.8672 -5.90213e-06 0 200 0
-23.8398 -46.8677 -8.8532e-06 0 200 0
-23.8448 -46.8682 -1.18043e-05 0 200 0
-23.8497 -46.8687 -1.47553e-05 0 200 0
-23.8547 -46.8692 -1.77064e-05 0 200 0
-23.8597 -46.8697 -2.06575e-05 0 200 0
-23.8647 -46.8702 -2.36085e-05 0 200 0
-23.8696 -46.8707 -2.65596e-05 0 200 0
-23.8746 -46.8712 -2.95107e-05 0 200 0
-23.8796 -46.8717 -3.24617e-05 0 200 0
-23.8846 -46.8722 -3.54128e-05 0 200 0
-23.8895 -46.8727 -3.83638e-05 0 200 0
-23.8945 -46.8732 -4.13149e-05 0 200 0
-23.8995 -46.8737 -4.4266e-05 0 200 0
-23.9045 -46.8742 -4.7217e-05 0 200 0
-23.9094 -46.8747 -5.01681e-05 0 200 0
-23.9144 -46.8752 -5.31192e-05 0 200 0
-23.9194 -46.8757 -5.60702e-05 0 200 0
-23.9244 -46.8762 -5.90213e-05 0 200 0
-23.9293 -46.8767 -6.19724e-05 0 200 0
-23.9343 -46.8772 -6.49234e-05 0 200 0
-23.9393 -46.8777 -6.78745e-05 0 200 0
-23.9443 -46.8782 -7.08256e-05 0 200 0
-23.9492 -46.8787 -7.37766e-05 0 200 0
-23.9542 -46.8792 -7.67277e-05 0 200 0
-23.9592 -46.8797 -7.96788e-05 0 200 0
-23.9641 -46.8802 -8.26298e-05 0 200 0
-23.9691 -46.8807 -8.55809e-05 0 200 0
-23.9741 -46.8812 -8.8532e-05 0 200 0
-23.9791 -46.8817 -9.1483e-05 0 200 0
-23.984 -46.8822 -9.44341e-05 0 200 0
-23.989 -46.8827 -9.73851e-05 0 200 0
-23.994 -46.8832 -0.000100336 0 200 0
-23.999 -46.8837 -0.000103287 0 200 0
-24.0039 -46.8842 -0.000106238 0 200 0
-24.0089 -46.8847 -0.000109189 0 200 0
-24.0139 -46.8852 -0.00011214 0 200 0
-24.0189 -46.8857 -0.000115092 0 200 0
-24.0238 -46.8862 -0.000118043 0 200 0
-24.0288 -46.8867 -0.000120994 0 200 0
-24.0338 -46.8872 -0.000123945 0 200 0
-24.0388 -46.8877 -0.000126896 0 200 0
-24.0437 -46.8882 -0.000129847 0 200 0
-24.0487 -46.8887 -0.000132798 0 200 0
-24.0537 -46.8892 -0.000135749 0 200 0
-24.0587 -46.8897 -0.0001387 0 200 0
-24.0636 -46.8903 -0.000141651 0 200 0
-24.0686 -46.8908 -0.000144602 0 200 0
-24.0736 -46.8913 -0.000147553 0 200 0
-24.0786 -46.8918 -0.000150504 0 200 0
-24.0835 -46.8923 -0.000153455 0 200 0
-24.0885 -46.8928 -0.000156406 0 200 0
-24.0935 -46.8933 -0.000159358 0 200 0
-24.0985 -46.8938 -0.000162309 0 200 0
-24.1034 -46.8943 -0.00016526 0 200 0
-24.1084 -46.8948 -0.000168211 0 200 0
-24.1134 -46.8953 -0.000171162 0 200 0
-24.1184 -46.8958 -0.000174113 0 200 0
-24.1233 -46.8963 -0.000177064 0 200 0
-24.1283 -46.8968 -0.000180015 0 200 0
-24.1333 -46.8973 -0.000182966 0 200 0
-24.1383 -46.8978 -0.000185917 0 200 0
-24.1432 -46.8983 -0.000188868 0 200 0
-24.1482 -46.8988 -0.000191819 0 200 0
-24.1532 -46.8993 -0.00019477 0 200 0
-24.1582 -46.8998 -0.000197721 0 200 0
-24.1631 -46.9003 -0.000200672 0 200 0
-24.1681 -46.9008 -0.000203623 0 200 0
-24.1731 -46.9013 -0.000206575 0 200 0
-24.1781 -46.9018 -0.000209526 0 200 0
-24.183 -46.9023 -0.000212477 0 200 0
-24.188 -46.9028 -0.000215428 0 200 0
-24.193 -46.9033 -0.000218379 0 200 0
-24.198 -46.9038 -0.00022133 0 200 0
-24.2029 -46.9043 -0.000224281 0 200 0
-24.2079 -46.9048 -0.000227232 0 200 0
-24.2129 -46.9053 -0.000230183 0 200 0
-24.2179 -46.9058 -0.000233134 0 200 0
-24.2228 -46.9063 -0.000236085 0 200 0
-24.2278 -46.9068 -0.000239036 0 200 0
-24.2328 -46.9073 -0.000241987 0 200 0
-24.2378 -46.9078 -0.000244938 0 200 0
-24.2427 -46.9083 -0.000247889 0 200 0
-24.2477 -46.9088 -0.000250841 0 200 0
-24.2527 -46.9093 -0.000253792 0 200 0
-24.2577 -46.9098 -0.000256743 0 200 0
-24.2626 -46.9103 -0.000259694 0 200 0
-24.2676 -46.9108 -0.000262645 0 200 0
-24.2726 -46.9113 -0.000265596 0 200 0
-24.2776 -46.9118 -0.000268547 0 200 0
-24.2825 -46.9123 -0.000271498 0 200 0
-24.2875 -46.9128 -0.000274449 0 200 0
-24.2925 -46.9133 -0.0002774 0 200 0
-24.2975 -46.9138 -0.000280351 0 200 0
-24.3024 -46.9143 -0.000283302 0 200 0
-24.3074 -46.9148 -0.000286253 0 200 0
-24.3124 -46.9153 -0.000289204 0 200 0
-24.3174 -46.9158 -0.000292155 0 200 0
-25.0504 -47.2436 0 0 200 0
-25.0553 -47.2427 -2.29628e-05 0 200 0
-25.0602 -47.2418 -4.59257e-05 0 200 0
-25.0651 -47.2409 -6.88885e-05 0 200 0
-25.0701 -47.24 -9.18514e-05 0 200 0
-25.075 -47.2391 -0.000114814 0 200 0
-25.0799 -47.2382 -0.000137777 0 200 0
-25.0848 -47.2373 -0.00016074 0 200 0
-25.0897 -47.2365 -0.000183703 0 200 0
-25.0947 -47.2356 -0.000206666 0 200 0
-25.0996 -47.2347 -0.000229628 0 200 0
-25.1045 -47.2338 -0.000252591 0 200 0
-25.1094 -47.2329 -0.000275554 0 200 0
-25.1143 -47.232 -0.000298517 0 200 0
-25.1193 -47.2311 -0.00032148 0 200 0
-25.1242 -47.2302 -0.000344443 0 200 0
-25.1291 -47.2293 -0.000367406 0 200 0
-25.134 -47.2285 -0.000390368 0 200 0
-25.1389 -47.2276 -0.000413331 0 200 0
-25.1439 -47.2267 -0.000436294 0 200 0
-25.1488 -47.2258 -0.000459257 0 200 0
-25.1537 -47.2249 -0.00048222 0 200 0
-25.1586 -47.224 -0.000505183 0 200 0
-25.1635 -47.2231 -0.000528146 0 200 0
-25.1685 -47.2222 -0.000551108 0 200 0
-25.1734 -47.2213 -0.000574071 0 200 0
-25.1783 -47.2205 -0.000597034 0 200 0
-25.1832 -47.2196 -0.000619997 0 200 0
-25.1881 -47.2187 -0.00064296 0 200 0
-25.1931 -47.2178 -0.000665923 0 200 0
-25.198 -47.2169 -0.000688885 0 200 0
-25.2029 -47.216 -0.000711848 0 200 0
-25.2078 -47.2151 -0.000734811 0 200 0
-25.2127 -47.2142 -0.000757774 0 200 0
-25.2177 -47.2133 -0.000780737 0 200 0
-25.2226 -47.2125 -0.0008037 0 200 0
-25.2275 -47.2116 -0.000826663 0 200 0
-25.2324 -47.2107 -0.000849625 0 200 0
-25.2373 -47.2098 -0.000872588 0 200 0
-25.2423 -47.2089 -0.000895551 0 200 0
-25.2472 -47.208 -0.000918514 0 200 0
-25.2521 -47.2071 -0.000941477 0 200 0
-25.257 -47.2062 -0.00096444 0 200 0
-25.2619 -47.2053 -0.000987403 0 200 0
-25.2669 -47.2045 -0.00101037 0 200 0
-25.2718 -47.2036 -0.00103333 0 200 0
-25.2767 -47.2027 -0.00105629 0 200 0
-25.2816 -47.2018 -0.00107925 0 200 0
-25.2865 -47.2009 -0.00110222 0 200 0
-25.2915 -47.2 -0.00112518 0 200 0
-25.2964 -47.1991 -0.00114814 0 200 0
-25.3013 -47.1982 -0.00117111 0 200 0
-25.3062 -47.1973 -0.00119407 0 200 0
-25.3111 -47.1965 -0.00121703 0 200 0
-25.3161 -47.1956 -0.00123999 0 200 0
-25.321 -47.1947 -0.00126296 0 200 0
-25.3259 -47.1938 -0.00128592 0 200 0
-25.3308 -47.1929 -0.00130888 0 200 0
-25.3358 -47.192 -0.00133185 0 200 0
-25.3407 -47.1911 -0.00135481 0 200 0
-25.3456 -47.1902 -0.00137777 0 200 0
-25.3505 -47.1893 -0.00140073 0 200 0
-25.3554 -47.1885 -0.0014237 0 200 0
-25.3604 -47.1876 -0.00144666 0 200 0
-25.3653 -47.1867 -0.00146962 0 200 0
-25.3702 -47.1858 -0.00149259 0 200 0
-25.3751 -47.1849 -0.00151555 0 200 0
-25.38 -47.184 -0.00153851 0 200 0
-25.385 -47.1831 -0.00156147 0 200 0
-25.3899 -47.1822 -0.00158444 0 200 0
-25.3948 -47.1813 -0.0016074 0 200 0
-25.3997 -47.1805 -0.00163036 0 200 0
-25.4046 -47.1796 -0.00165333 0 200 0
-25.4096 -47.1787 -0.00167629 0 200 0
-25.4145 -47.1778 -0.00169925 0 200 0
-25.4194 -47.1769 -0.00172221 0 200 0
-25.4243 -47.176 -0.00174518 0 200 0
-25.4292 -47.1751 -0.00176814 0 200 0
-25.4342 -47.1742 -0.0017911 0 200 0
-25.4391 -47.1733 -0.00181407 0 200 0
-25.444 -47.1725 -0.00183703 0 200 0
-25.4489 -47.1716 -0.00185999 0 200 0
-25.4538 -47.1707 -0.00188295 0 200 0
-25.4588 -47.1698 -0.00190592 0 200 0
-25.4637 -47.1689 -0.00192888 0 200 0
-25.4686 -47.168 -0.00195184 0 200 0
-25.4735 -47.1671 -0.00197481 0 200 0
-25.4784 -47.1662 -0.00199777 0 200 0
-25.4834 -47.1653 -0.00202073 0 200 0
-25.4883 -47.1645 -0.00204369 0 200 0
-25.4932 -47.1636 -0.00206666 0 200 0
-25.4981 -47.1627 -0.00208962 0 200 0
-25.503 -47.1618 -0.00211258 0 200 0
-25.508 -47.1609 -0.00213555 0 200 0
-25.5129 -47.16 -0.00215851 0 200 0
-25.5178 -47.1591 -0.00218147 0 200 0
-25.5227 -47.1582 -0.00220443 0 200 0
-25.5276 -47.1573 -0.0022274 0 200 0
-25.5326 -47.1565 -0.00225036 0 200 0
-25.5375 -47.1556 -0.00227332 0 200 0
-26.507 -47.043 0 0 200 0
-26.5109 -47.0398 0.000150911 0 200 0
-26.5148 -47.0366 0.000301821 0 200 0
-26.5186 -47.0335 0.000452732 0 200 0
-26.5225 -47.0303 0.000603643 0 200 0
-26.5263 -47.0271 0.000754554 0 200 0
-26.5302 -47.0239 0.000905464 0 200 0
-26.5341 -47.0208 0.00105637 0 200 0
-26.5379 -47.0176 0.00120729 0 200 0
-26.5418 -47.0144 0.0013582 0 200 0
-26.5456 -47.0112 0.00150911 0 200 0
-26.5495 -47.0081 0.00166002 0 200 0
-26.5534 -47.0049 0.00181093 0 200 0
-26.5572 -47.0017 0.00196184 0 200 0
-26.5611 -46.9986 0.00211275 0 200 0
-26.5649 -46.9954 0.00226366 0 200 0
-26.5688 -46.9922 0.00241457 0 200 0
-26.5727 -46.989 0.00256548 0 200 0
-26.5765 -46.9859 0.00271639 0 200 0
-26.5804 -46.9827 0.0028673 0 200 0
-26.5842 -46.9795 0.00301821 0 200 0
-26.5881 -46.9763 0.00316912 0 200 0
-26.592 -46.9732 0.00332004 0 200 0
-26.5958 -46.97 0.00347095 0 200 0
-26.5997 -46.9668 0.00362186 0 200 0
-26.6036 -46.9636 0.00377277 0 200 0
-26.6074 -46.9605 0.00392368 0 200 0
-26.6113 -46.9573 0.00407459 0 200 0
-26.6151 -46.9541 0.0042255 0 200 0
-26.619 -46.951 0.00437641 0 200 0
-26.6229 -46.9478 0.00452732 0 200 0
-26.6267 -46.9446 0.00467823 0 200 0
-26.6306 -46.9414 0.00482914 0 200 0
-26.6344 -46.9383 0.00498005 0 200 0
-26.6383 -46.9351 0.00513096 0 200 0
-26.6422 -46.9319 0.00528187 0 200 0
-26.646 -46.9287 0.00543279 0 200 0
-26.6499 -46.9256 0.0055837 0 200 0
-26.6537 -46.9224 0.00573461 0 200 0
-26.6576 -46.9192 0.00588552 0 200 0
-26.6615 -46.916 0.00603643 0 200 0
-26.6653 -46.9129 0.00618734 0 200 0
-26.6692 -46.9097 0.00633825 0 200 0
-26.673 -46.9065 0.00648916 0 200 0
-26.6769 -46.9034 0.00664007 0 200 0
-26.6808 -46.9002 0.00679098 0 200 0
-26.6846 -46.897 0.00694189 0 200 0
-26.6885 -46.8938 0.0070928 0 200 0
-26.6924 -46.8907 0.00724371 0 200 0
-26.6962 -46.8875 0.00739462 0 200 0
-26.7001 -46.8843 0.00754554 0 200 0
-26.7039 -46.8811 0.00769645 0 200 0
-26.7078 -46.878 0.00784736 0 200 0
-26.7117 -46.8748 0.00799827 0 200 0
-26.7155 -46.8716 0.00814918 0 200 0
-26.7194 -46.8684 0.00830009 0 200 0
-26.7232 -46.8653 0.008451 0 200 0
-26.7271 -46.8621 0.00860191 0 200 0
-26.731 -46.8589 0.00875282 0 200 0
-26.7348 -46.8557 0.00890373 0 200 0
-26.7387 -46.8526 0.00905464 0 200 0
-26.7425 -46.8494 0.00920555 0 200 0
-26.7464 -46.8462 0.00935646 0 200 0
-26.7503 -46.8431 0.00950737 0 200 0
-26.7541 -46.8399 0.00965829 0 200 0
-26.758 -46.8367 0.0098092 0 200 0
-26.7618 -46.8335 0.00996011 0 200 0
-26.7657 -46.8304 0.010111 0 200 0
-26.7696 -46.8272 0.0102619 0 200 0
-26.7734 -46.824 0.0104128 0 200 0
-26.7773 -46.8208 0.0105637 0 200 0
-26.7812 -46.8177 0.0107147 0 200 0
-26.785 -46.8145 0.0108656 0 200 0
-26.7889 -46.8113 0.0110165 0 200 0
-26.7927 -46.8081 0.0111674 0 200 0
-26.7966 -46.805 0.0113183 0 200 0
-26.8005 -46.8018 0.0114692 0 200 0
-26.8043 -46.7986 0.0116201 0 200 0
-26.8082 -46.7954 0.011771 0 200 0
-26.812 -46.7923 0.0119219 0 200 0
-26.8159 -46.7891 0.0120729 0 200 0
-26.8198 -46.7859 0.0122238 0 200 0
-26.8236 -46.7828 0.0123747 0 200 0
-26.8275 -46.7796 0.0125256 0 200 0
-26.8313 -46.7764 0.0126765 0 200 0
-26.8352 -46.7732 0.0128274 0 200 0
-26.8391 -46.7701 0.0129783 0 200 0
-26.8429 -46.7669 0.0131292 0 200 0
-26.8468 -46.7637 0.0132801 0 200 0
-26.8506 -46.7605 0.0134311 0 200 0
-26.8545 -46.7574 0.013582 0 200 0
-26.8584 -46.7542 0.0137329 0 200 0
-26.8622 -46.751 0.0138838 0 200 0
-26.8661 -46.7478 0.0140347 0 200 0
-26.8699 -46.7447 0.0141856 0 200 0
-26.8738 -46.7415 0.0143365 0 200 0
-26.8777 -46.7383 0.0144874 0 200 0
-26.8815 -46.7351 0.0146383 0 200 0
-26.8854 -46.732 0.0147892 0 200 0
-26.8893 -46.7288 0.0149402 0 200 0
-28.2367 -46.5119 0 0 200 0
-28.2377 -46.507 -0.000246754 0 200 0
-28.2387 -46.5021 -0.000493508 0 200 0
-28.2396 -46.4972 -0.000740261 0 200 0
-28.2406 -46.4923 -0.000987015 0 200 0
-28.2416 -46.4874 -0.00123377 0 200 0
-28.2426 -46.4825 -0.00148052 0 200 0
-28.2436 -46.4776 -0.00172728 0 200 0
-28.2445 -46.4727 -0.00197403 0 200 0
-28.2455 -46.4678 -0.00222078 0 200 0
-28.2465 -46.4629 -0.00246754 0 200 0
-28.2475 -46.458 -0.00271429 0 200 0
-28.2484 -46.4531 -0.00296105 0 200 0
-28.2494 -46.4482 -0.0032078 0 200 0
-28.2504 -46.4433 -0.00345455 0 200 0
-28.2514 -46.4384 -0.00370131 0 200 0
-28.2523 -46.4335 -0.00394806 0 200 0
-28.2533 -46.4286 -0.00419481 0 200 0
-28.2543 -46.4237 -0.00444157 0 200 0
-28.2553 -46.4188 -0.00468832 0 200 0
-28.2562 -46.4139 -0.00493508 0 200 0
-28.2572 -46.409 -0.00518183 0 200 0
-28.2582 -46.4041 -0.00542858 0 200 0
-28.2592 -46.3992 -0.00567534 0 200 0
-28.2602 -46.3943 -0.00592209 0 200 0
-28.2611 -46.3895 -0.00616885 0 200 0
-28.2621 -46.3846 -0.0064156 0 200 0
-28.2631 -46.3797 -0.00666235 0 200 0
-28.2641 -46.3748 -0.00690911 0 200 0
-28.265 -46.3699 -0.00715586 0 200 0
-28.266 -46.365 -0.00740261 0 200 0
-28.267 -46.3601 -0.00764937 0 200 0
-28.268 -46.3552 -0.00789612 0 200 0
-28.2689 -46.3503 -0.00814288 0 200 0
-28.2699 -46.3454 -0.00838963 0 200 0
-28.2709 -46.3405 -0.00863638 0 200 0
-28.2719 -46.3356 -0.00888314 0 200 0
-28.2728 -46.3307 -0.00912989 0 200 0
-28.2738 -46.3258 -0.00937665 0 200 0
-28.2748 -46.3209 -0.0096234 0 200 0
-28.2758 -46.316 -0.00987015 0 200 0
-28.2768 -46.3111 -0.0101169 0 200 0
-28.2777 -46.3062 -0.0103637 0 200 0
-28.2787 -46.3013 -0.0106104 0 200 0
-28.2797 -46.2964 -0.0108572 0 200 0
-28.2807 -46.2915 -0.0111039 0 200 0
-28.2816 -46.2866 -0.0113507 0 200 0
-28.2826 -46.2817 -0.0115974 0 200 0
-28.2836 -46.2768 -0.0118442 0 200 0
-28.2846 -46.2719 -0.0120909 0 200 0
-28.2855 -46.267 -0.0123377 0 200 0
-28.2865 -46.2621 -0.0125844 0 200 0
-28.2875 -46.2572 -0.0128312 0 200 0
-28.2885 -46.2523 -0.013078 0 200 0
-28.2894 -46.2474 -0.0133247 0 200 0
-28.2904 -46.2425 -0.0135715 0 200 0
-28.2914 -46.2376 -0.0138182 0 200 0
-28.2924 -46.2327 -0.014065 0 200 0
-28.2934 -46.2278 -0.0143117 0 200 0
-28.2943 -46.2229 -0.0145585 0 200 0
-28.2953 -46.218 -0.0148052 0 200 0
-28.2963 -46.2131 -0.015052 0 200 0
-28.2973 -46.2082 -0.0152987 0 200 0
-28.2982 -46.2033 -0.0155455 0 200 0
-28.2992 -46.1984 -0.0157922 0 200 0
-28.3002 -46.1936 -0.016039 0 200 0
-28.3012 -46.1887 -0.0162858 0 200 0
-28.3021 -46.1838 -0.0165325 0 200 0
-28.3031 -46.1789 -0.0167793 0 200 0
-28.3041 -46.174 -0.017026 0 200 0
-28.3051 -46.1691 -0.0172728 0 200 0
-28.306 -46.1642 -0.0175195 0 200 0
-28.307 -46.1593 -0.0177663 0 200 0
-28.308 -46.1544 -0.018013 0 200 0
-28.309 -46.1495 -0.0182598 0 200 0
-28.31 -46.1446 -0.0185065 0 200 0
-28.3109 -46.1397 -0.0187533 0 200 0
-28.3119 -46.1348 -0.019 0 200 0
-28.3129 -46.1299 -0.0192468 0 200 0
-28.3139 -46.125 -0.0194936 0 200 0
-28.3148 -46.1201 -0.0197403 0 200 0
-28.3158 -46.1152 -0.0199871 0 200 0
-28.3168 -46.1103 -0.0202338 0 200 0
-28.3178 -46.1054 -0.0204806 0 200 0
-28.3187 -46.1005 -0.0207273 0 200 0
-28.3197 -46.0956 -0.0209741 0 200 0
-28.3207 -46.0907 -0.0212208 0 200 0
-28.3217 -46.0858 -0.0214676 0 200 0
-28.3227 -46.0809 -0.0217143 0 200 0
-28.3236 -46.076 -0.0219611 0 200 0
-28.3246 -46.0711 -0.0222078 0 200 0
-28.3256 -46.0662 -0.0224546 0 200 0
-28.3266 -46.0613 -0.0227014 0 200 0
-28.3275 -46.0564 -0.0229481 0 200 0
-28.3285 -46.0515 -0.0231949 0 200 0
-28.3295 -46.0466 -0.0234416 0 200 0
-28.3305 -46.0417 -0.0236884 0 200 0
-28.3314 -46.0368 -0.0239351 0 200 0
-28.3324 -46.0319 -0.0241819 0 200 0
-28.3334 -46.027 -0.0244286 0 200 0
-30.1952 -46.0326 0 0 200 0
-30.1951 -46.0276 -2.89227e-05 0 200 0
-30.195 -46.0226 -5.78455e-05 0 200 0
-30.195 -46.0176 -8.67682e-05 0 200 0
-30.1949 -46.0126 -0.000115691 0 200 0
-30.1949 -46.0076 -0.000144614 0 200 0
-30.1948 -46.0026 -0.000173536 0 200 0
-30.1948 -45.9976 -0.000202459 0 200 0
-30.1947 -45.9926 -0.000231382 0 200 0
-30.1947 -45.9876 -0.000260305 0 200 0
-30.1946 -45.9826 -0.000289227 0 200 0
-30.1946 -45.9776 -0.00031815 0 200 0
-30.1945 -45.9726 -0.000347073 0 200 0
-30.1944 -45.9676 -0.000375996 0 200 0
-30.1944 -45.9626 -0.000404918 0 200 0
-30.1943 -45.9576 -0.000433841 0 200 0
-30.1943 -45.9526 -0.000462764 0 200 0
-30.1942 -45.9476 -0.000491687 0 200 0
-30.1942 -45.9426 -0.000520609 0 200 0
-30.1941 -45.9376 -0.000549532 0 200 0
-30.1941 -45.9326 -0.000578455 0 200 0
-30.194 -45.9276 -0.000607377 0 200 0
-30.194 -45.9226 -0.0006363 0 200 0
-30.1939 -45.9176 -0.000665223 0 200 0
-30.1938 -45.9126 -0.000694146 0 200 0
-30.1938 -45.9076 -0.000723068 0 200 0
-30.1937 -45.9026 -0.000751991 0 200 0
-30.1937 -45.8976 -0.000780914 0 200 0
-30.1936 -45.8926 -0.000809837 0 200 0
-30.1936 -45.8876 -0.000838759 0 200 0
-30.1935 -45.8826 -0.000867682 0 200 0
-30.1935 -45.8776 -0.000896605 0 200 0
-30.1934 -45.8726 -0.000925528 0 200 0
-30.1934 -45.8676 -0.00095445 0 200 0
-30.1933 -45.8626 -0.000983373 0 200 0
-30.1932 -45.8576 -0.0010123 0 200 0
-30.1932 -45.8526 -0.00104122 0 200 0
-30.1931 -45.8476 -0.00107014 0 200 0
-30.1931 -45.8426 -0.00109906 0 200 0
-30.193 -45.8376 -0.00112799 0 200 0
-30.193 -45.8326 -0.00115691 0 200 0
-30.1929 -45.8276 -0.00118583 0 200 0
-30.1929 -45.8226 -0.00121475 0 200 0
-30.1928 -45.8176 -0.00124368 0 200 0
-30.1928 -45.8126 -0.0012726 0 200 0
-30.1927 -45.8076 -0.00130152 0 200 0
-30.1927 -45.8026 -0.00133045 0 200 0
-30.1926 -45.7976 -0.00135937 0 200 0
-30.1925 -45.7926 -0.00138829 0 200 0
-30.1925 -45.7876 -0.00141721 0 200 0
-30.1924 -45.7826 -0.00144614 0 200 0
-30.1924 -45.7776 -0.00147506 0 200 0
-30.1923 -45.7726 -0.00150398 0 200 0
-30.1923 -45.7676 -0.00153291 0 200 0
-30.1922 -45.7626 -0.00156183 0 200 0
-30.1922 -45.7576 -0.00159075 0 200 0
-30.1921 -45.7526 -0.00161967 0 200 0
-30.1921 -45.7476 -0.0016486 0 200 0
-30.192 -45.7426 -0.00167752 0 200 0
-30.1919 -45.7376 -0.00170644 0 200 0
-30.1919 -45.7326 -0.00173536 0 200 0
-30.1918 -45.7276 -0.00176429 0 200 0
-30.1918 -45.7226 -0.00179321 0 200 0
-30.1917 -45.7176 -0.00182213 0 200 0
-30.1917 -45.7126 -0.00185106 0 200 0
-30.1916 -45.7076 -0.00187998 0 200 0
-30.1916 -45.7026 -0.0019089 0 200 0
-30.1915 -45.6976 -0.00193782 0 200 0
-30.1915 -45.6926 -0.00196675 0 200 0
-30.1914 -45.6876 -0.00199567 0 200 0
-30.1913 -45.6826 -0.00202459 0 200 0
-30.1913 -45.6776 -0.00205351 0 200 0
-30.1912 -45.6726 -0.00208244 0 200 0
-30.1912 -45.6676 -0.00211136 0 200 0
-30.1911 -45.6626 -0.00214028 0 200 0
-30.1911 -45.6576 -0.00216921 0 200 0
-30.191 -45.6526 -0.00219813 0 200 0
-30.191 -45.6476 -0.00222705 0 200 0
-30.1909 -45.6426 -0.00225597 0 200 0
-30.1909 -45.6376 -0.0022849 0 200 0
-30.1908 -45.6326 -0.00231382 0 200 0
-30.1907 -45.6276 -0.00234274 0 200 0
-30.1907 -45.6226 -0.00237166 0 200 0
-30.1906 -45.6176 -0.00240059 0 200 0
-30.1906 -45.6126 -0.00242951 0 200 0
-30.1905 -45.6076 -0.00245843 0 200 0
-30.1905 -45.6026 -0.00248736 0 200 0
-30.1904 -45.5976 -0.00251628 0 200 0
-30.1904 -45.5926 -0.0025452 0 200 0
-30.1903 -45.5876 -0.00257412 0 200 0
-30.1903 -45.5826 -0.00260305 0 200 0
-30.1902 -45.5776 -0.00263197 0 200 0
-30.1901 -45.5726 -0.00266089 0 200 0
-30.1901 -45.5676 -0.00268981 0 200 0
-30.19 -45.5626 -0.00271874 0 200 0
-30.19 -45.5576 -0.00274766 0 200 0
-30.1899 -45.5526 -0.00277658 0 200 0
-30.1899 -45.5476 -0.00280551 0 200 0
-30.1898 -45.5426 -0.00283443 0 200 0
-30.1898 -45.5376 -0.00286335 0 200 0
-31.9723 -45.5921 0 0 200 0
-31.9727 -45.5872 -0.000140272 0 200 0
-31.973 -45.5822 -0.000280545 0 200 0
-31.9733 -45.5772 -0.000420817 0 200 0
-31.9736 -45.5722 -0.000561089 0 200 0
-31.974 -45.5672 -0.000701362 0 200 0
-31.9743 -45.5622 -0.000841634 0 200 0
-31.9746 -45.5572 -0.000981907 0 200 0
-31.9749 -45.5522 -0.00112218 0 200 0
-31.9753 -45.5473 -0.00126245 0 200 0
-31.9756 -45.5423 -0.00140272 0 200 0
-31.9759 -45.5373 -0.001543 0 200 0
-31.9762 -45.5323 -0.00168327 0 200 0
-31.9765 -45.5273 -0.00182354 0 200 0
-31.9769 -45.5223 -0.00196381 0 200 0
-31.9772 -45.5173 -0.00210409 0 200 0
-31.9775 -45.5123 -0.00224436 0 200 0
-31.9778 -45.5074 -0.00238463 0 200 0
-31.9782 -45.5024 -0.0025249 0 200 0
-31.9785 -45.4974 -0.00266517 0 200 0
-31.9788 -45.4924 -0.00280545 0 200 0
-31.9791 -45.4874 -0.00294572 0 200 0
-31.9795 -45.4824 -0.00308599 0 200 0
-31.9798 -45.4774 -0.00322626 0 200 0
-31.9801 -45.4724 -0.00336654 0 200 0
-31.9804 -45.4675 -0.00350681 0 200 0
-31.9807 -45.4625 -0.00364708 0 200 0
-31.9811 -45.4575 -0.00378735 0 200 0
-31.9814 -45.4525 -0.00392763 0 200 0
-31.9817 -45.4475 -0.0040679 0 200 0
-31.982 -45.4425 -0.00420817 0 200 0
-31.9824 -45.4375 -0.00434844 0 200 0
-31.9827 -45.4325 -0.00448872 0 200 0
-31.983 -45.4276 -0.00462899 0 200 0
-31.9833 -45.4226 -0.00476926 0 200 0
-31.9837 -45.4176 -0.00490953 0 200 0
-31.984 -45.4126 -0.00504981 0 200 0
-31.9843 -45.4076 -0.00519008 0 200 0
-31.9846 -45.4026 -0.00533035 0 200 0
-31.9849 -45.3976 -0.00547062 0 200 0
-31.9853 -45.3926 -0.00561089 0 200 0
-31.9856 -45.3876 -0.00575117 0 200 0
-31.9859 -45.3827 -0.00589144 0 200 0
-31.9862 -45.3777 -0.00603171 0 200 0
-31.9866 -45.3727 -0.00617198 0 200 0
-31.9869 -45.3677 -0.00631226 0 200 0
-31.9872 -45.3627 -0.00645253 0 200 0
-31.9875 -45.3577 -0.0065928 0 200 0
-31.9879 -45.3527 -0.00673307 0 200 0
-31.9882 -45.3477 -0.00687335 0 200 0
-31.9885 -45.3428 -0.00701362 0 200 0
-31.9888 -45.3378 -0.00715389 0 200 0
-31.9891 -45.3328 -0.00729416 0 200 0
-31.9895 -45.3278 -0.00743444 0 200 0
-31.9898 -45.3228 -0.00757471 0 200 0
-31.9901 -45.3178 -0.00771498 0 200 0
-31.9904 -45.3128 -0.00785525 0 200 0
-31.9908 -45.3078 -0.00799552 0 200 0
-31.9911 -45.3029 -0.0081358 0 200 0
-31.9914 -45.2979 -0.00827607 0 200 0
-31.9917 -45.2929 -0.00841634 0 200 0
-31.9921 -45.2879 -0.00855661 0 200 0
-31.9924 -45.2829 -0.00869689 0 200 0
-31.9927 -45.2779 -0.00883716 0 200 0
-31.993 -45.2729 -0.00897743 0 200 0
-31.9934 -45.2679 -0.0091177 0 200 0
-31.9937 -45.263 -0.00925798 0 200 0
-31.994 -45.258 -0.00939825 0 200 0
-31.9943 -45.253 -0.00953852 0 200 0
-31.9946 -45.248 -0.00967879 0 200 0
-31.995 -45.243 -0.00981907 0 200 0
-31.9953 -45.238 -0.00995934 0 200 0
-31.9956 -45.233 -0.0100996 0 200 0
-31.9959 -45.228 -0.0102399 0 200 0
-31.9963 -45.2231 -0.0103802 0 200 0
-31.9966 -45.2181 -0.0105204 0 200 0
-31.9969 -45.2131 -0.0106607 0 200 0
-31.9972 -45.2081 -0.010801 0 200 0
-31.9976 -45.2031 -0.0109412 0 200 0
-31.9979 -45.1981 -0.0110815 0 200 0
-31.9982 -45.1931 -0.0112218 0 200 0
-31.9985 -45.1881 -0.0113621 0 200 0
-31.9988 -45.1832 -0.0115023 0 200 0
-31.9992 -45.1782 -0.0116426 0 200 0
-31.9995 -45.1732 -0.0117829 0 200 0
-31.9998 -45.1682 -0.0119232 0 200 0
-32.0001 -45.1632 -0.0120634 0 200 0
-32.0005 -45.1582 -0.0122037 0 200 0
-32.0008 -45.1532 -0.012344 0 200 0
-32.0011 -45.1482 -0.0124842 0 200 0
-32.0014 -45.1433 -0.0126245 0 200 0
-32.0018 -45.1383 -0.0127648 0 200 0
-32.0021 -45.1333 -0.0129051 0 200 0
-32.0024 -45.1283 -0.0130453 0 200 0
-32.0027 -45.1233 -0.0131856 0 200 0
-32.003 -45.1183 -0.0133259 0 200 0
-32.0034 -45.1133 -0.0134661 0 200 0
-32.0037 -45.1083 -0.0136064 0 200 0
-32.004 -45.1034 -0.0137467 0 200 0
-32.0043 -45.0984 -0.013887 0 200 0
-33.4102 -45.1056 0 0 200 0
-33.4101 -45.1006 7.8079e-05 0 200 0
-33.4101 -45.0956 0.000156158 0 200 0
-33.41 -45.0906 0.000234237 0 200 0
-33.41 -45.0856 0.000312316 0 200 0
-33.4099 -45.0806 0.000390395 0 200 0
-33.4099 -45.0756 0.000468474 0 200 0
-33.4099 -45.0706 0.000546553 0 200 0
-33.4098 -45.0656 0.000624632 0 200 0
-33.4098 -45.0606 0.000702711 0 200 0
-33.4097 -45.0556 0.00078079 0 200 0
-33.4097 -45.0506 0.000858869 0 200 0
-33.4096 -45.0456 0.000936948 0 200 0
-33.4096 -45.0406 0.00101503 0 200 0
-33.4096 -45.0356 0.00109311 0 200 0
-33.4095 -45.0306 0.00117119 0 200 0
-33.4095 -45.0256 0.00124926 0 200 0
-33.4094 -45.0206 0.00132734 0 200 0
-33.4094 -45.0156 0.00140542 0 200 0
-33.4094 -45.0106 0.0014835 0 200 0
-33.4093 -45.0056 0.00156158 0 200 0
-33.4093 -45.0006 0.00163966 0 200 0
-33.4092 -44.9956 0.00171774 0 200 0
-33.4092 -44.9906 0.00179582 0 200 0
-33.4091 -44.9856 0.0018739 0 200 0
-33.4091 -44.9806 0.00195198 0 200 0
-33.4091 -44.9756 0.00203005 0 200 0
-33.409 -44.9706 0.00210813 0 200 0
-33.409 -44.9656 0.00218621 0 200 0
-33.4089 -44.9606 0.00226429 0 200 0
-33.4089 -44.9556 0.00234237 0 200 0
-33.4088 -44.9506 0.00242045 0 200 0
-33.4088 -44.9456 0.00249853 0 200 0
-33.4088 -44.9406 0.00257661 0 200 0
-33.4087 -44.9356 0.00265469 0 200 0
-33.4087 -44.9306 0.00273277 0 200 0
-33.4086 -44.9256 0.00281084 0 200 0
-33.4086 -44.9206 0.00288892 0 200 0
-33.4086 -44.9156 0.002967 0 200 0
-33.4085 -44.9106 0.00304508 0 200 0
-33.4085 -44.9056 0.00312316 0 200 0
-33.4084 -44.9006 0.00320124 0 200 0
-33.4084 -44.8956 0.00327932 0 200 0
-33.4083 -44.8906 0.0033574 0 200 0
-33.4083 -44.8856 0.00343548 0 200 0
-33.4083 -44.8806 0.00351356 0 200 0
-33.4082 -44.8756 0.00359163 0 200 0
-33.4082 -44.8706 0.00366971 0 200 0
-33.4081 -44.8656 0.00374779 0 200 0
-33.4081 -44.8606 0.00382587 0 200 0
-33.4081 -44.8556 0.00390395 0 200 0
-33.408 -44.8506 0.00398203 0 200 0
-33.408 -44.8456 0.00406011 0 200 0
-33.4079 -44.8406 0.00413819 0 200 0
-33.4079 -44.8356 0.00421627 0 200 0
-33.4078 -44.8306 0.00429435 0 200 0
-33.4078 -44.8256 0.00437242 0 200 0
-33.4078 -44.8206 0.0044505 0 200 0
-33.4077 -44.8156 0.00452858 0 200 0
-33.4077 -44.8106 0.00460666 0 200 0
-33.4076 -44.8056 0.00468474 0 200 0
-33.4076 -44.8006 0.00476282 0 200 0
-33.4075 -44.7956 0.0048409 0 200 0
-33.4075 -44.7906 0.00491898 0 200 0
-33.4075 -44.7856 0.00499706 0 200 0
-33.4074 -44.7806 0.00507514 0 200 0
-33.4074 -44.7757 0.00515321 0 200 0
-33.4073 -44.7706 0.00523129 0 200 0
-33.4073 -44.7657 0.00530937 0 200 0
-33.4072 -44.7607 0.00538745 0 200 0
-33.4072 -44.7557 0.00546553 0 200 0
-33.4072 -44.7507 0.00554361 0 200 0
-33.4071 -44.7457 0.00562169 0 200 0
-33.4071 -44.7407 0.00569977 0 200 0
-33.407 -44.7357 0.00577785 0 200 0
-33.407 -44.7307 0.00585593 0 200 0
-33.407 -44.7257 0.005934 0 200 0
-33.4069 -44.7207 0.00601208 0 200 0
-33.4069 -44.7157 0.00609016 0 200 0
-33.4068 -44.7107 0.00616824 0 200 0
-33.4068 -44.7057 0.00624632 0 200 0
-33.4067 -44.7007 0.0063244 0 200 0
-33.4067 -44.6957 0.00640248 0 200 0
-33.4067 -44.6907 0.00648056 0 200 0
-33.4066 -44.6857 0.00655864 0 200 0
-33.4066 -44.6807 0.00663672 0 200 0
-33.4065 -44.6757 0.00671479 0 200 0
-33.4065 -44.6707 0.00679287 0 200 0
-33.4065 -44.6657 0.00687095 0 200 0
-33.4064 -44.6607 0.00694903 0 200 0
-33.4064 -44.6557 0.00702711 0 200 0
-33.4063 -44.6507 0.00710519 0 200 0
-33.4063 -44.6457 0.00718327 0 200 0
-33.4062 -44.6407 0.00726135 0 200 0
-33.4062 -44.6357 0.00733943 0 200 0
-33.4062 -44.6307 0.00741751 0 200 0
-33.4061 -44.6257 0.00749558 0 200 0
-33.4061 -44.6207 0.00757366 0 200 0
-33.406 -44.6157 0.00765174 0 200 0
-33.406 -44.6107 0.00772982 0 200 0
-34.6326 -44.5988 0 0 200 0
-34.633 -44.5938 4.78861e-05 0 200 0
-34.6334 -44.5888 9.57721e-05 0 200 0
-34.6337 -44.5838 0.000143658 0 200 0
-34.6341 -44.5789 0.000191544 0 200 0
-34.6345 -44.5739 0.00023943 0 200 0
-34.6349 -44.5689 0.000287316 0 200 0
-34.6352 -44.5639 0.000335202 0 200 0
-34.6356 -44.5589 0.000383088 0 200 0
-34.636 -44.5539 0.000430974 0 200 0
-34.6364 -44.5489 0.000478861 0 200 0
-34.6367 -44.544 0.000526747 0 200 0
-34.6371 -44.539 0.000574633 0 200 0
-34.6375 -44.534 0.000622519 0 200 0
-34.6379 -44.529 0.000670405 0 200 0
-34.6382 -44.524 0.000718291 0 200 0
-34.6386 -44.519 0.000766177 0 200 0
-34.639 -44.514 0.000814063 0 200 0
-34.6394 -44.5091 0.000861949 0 200 0
-34.6397 -44.5041 0.000909835 0 200 0
-34.6401 -44.4991 0.000957721 0 200 0
-34.6405 -44.4941 0.00100561 0 200 0
-34.6409 -44.4891 0.00105349 0 200 0
-34.6412 -44.4841 0.00110138 0 200 0
-34.6416 -44.4791 0.00114927 0 200 0
-34.642 -44.4742 0.00119715 0 200 0
-34.6424 -44.4692 0.00124504 0 200 0
-34.6428 -44.4642 0.00129292 0 200 0
-34.6431 -44.4592 0.00134081 0 200 0
-34.6435 -44.4542 0.0013887 0 200 0
-34.6439 -44.4492 0.00143658 0 200 0
-34.6443 -44.4442 0.00148447 0 200 0
-34.6446 -44.4393 0.00153235 0 200 0
-34.645 -44.4343 0.00158024 0 200 0
-34.6454 -44.4293 0.00162813 0 200 0
-34.6458 -44.4243 0.00167601 0 200 0
-34.6461 -44.4193 0.0017239 0 200 0
-34.6465 -44.4143 0.00177178 0 200 0
-34.6469 -44.4093 0.00181967 0 200 0
-34.6473 -44.4044 0.00186756 0 200 0
-34.6476 -44.3994 0.00191544 0 200 0
-34.648 -44.3944 0.00196333 0 200 0
-34.6484 -44.3894 0.00201121 0 200 0
-34.6488 -44.3844 0.0020591 0 200 0
-34.6491 -44.3794 0.00210699 0 200 0
-34.6495 -44.3744 0.00215487 0 200 0
-34.6499 -44.3695 0.00220276 0 200 0
-34.6503 -44.3645 0.00225064 0 200 0
-34.6507 -44.3595 0.00229853 0 200 0
-34.651 -44.3545 0.00234642 0 200 0
-34.6514 -44.3495 0.0023943 0 200 0
-34.6518 -44.3445 0.00244219 0 200 0
-34.6522 -44.3395 0.00249007 0 200 0
-34.6525 -44.3346 0.00253796 0 200 0
-34.6529 -44.3296 0.00258585 0 200 0
-34.6533 -44.3246 0.00263373 0 200 0
-34.6537 -44.3196 0.00268162 0 200 0
-34.654 -44.3146 0.00272951 0 200 0
-34.6544 -44.3096 0.00277739 0 200 0
-34.6548 -44.3046 0.00282528 0 200 0
-34.6552 -44.2997 0.00287316 0 200 0
-34.6555 -44.2947 0.00292105 0 200 0
-34.6559 -44.2897 0.00296894 0 200 0
-34.6563 -44.2847 0.00301682 0 200 0
-34.6567 -44.2797 0.00306471 0 200 0
-34.657 -44.2747 0.00311259 0 200 0
-34.6574 -44.2697 0.00316048 0 200 0
-34.6578 -44.2648 0.00320837 0 200 0
-34.6582 -44.2598 0.00325625 0 200 0
-34.6585 -44.2548 0.00330414 0 200 0
-34.6589 -44.2498 0.00335202 0 200 0
-34.6593 -44.2448 0.00339991 0 200 0
-34.6597 -44.2398 0.0034478 0 200 0
-34.66 -44.2348 0.00349568 0 200 0
-34.6604 -44.2299 0.00354357 0 200 0
-34.6608 -44.2249 0.00359145 0 200 0
-34.6612 -44.2199 0.00363934 0 200 0
-34.6616 -44.2149 0.00368723 0 200 0
-34.6619 -44.2099 0.00373511 0 200 0
-34.6623 -44.2049 0.003783 0 200 0
-34.6627 -44.1999 0.00383088 0 200 0
-34.6631 -44.195 0.00387877 0 200 0
-34.6634 -44.19 0.00392666 0 200 0
-34.6638 -44.185 0.00397454 0 200 0
-34.6642 -44.18 0.00402243 0 200 0
-34.6646 -44.175 0.00407031 0 200 0
-34.6649 -44.17 0.0041182 0 200 0
-34.6653 -44.1651 0.00416609 0 200 0
-34.6657 -44.1601 0.00421397 0 200 0
-34.6661 -44.1551 0.00426186 0 200 0
-34.6664 -44.1501 0.00430975 0 200 0
-34.6668 -44.1451 0.00435763 0 200 0
-34.6672 -44.1401 0.00440552 0 200 0
-34.6676 -44.1351 0.0044534 0 200 0
-34.6679 -44.1301 0.00450129 0 200 0
-34.6683 -44.1252 0.00454918 0 200 0
-34.6687 -44.1202 0.00459706 0 200 0
-34.6691 -44.1152 0.00464495 0 200 0
-34.6695 -44.1102 0.00469283 0 200 0
-34.6698 -44.1052 0.00474072 0 200 0
-35.5871 -44.1707 0 0 200 0
-35.5889 -44.166 5.56867e-05 0 200 0
-35.5906 -44.1614 0.000111373 0 200 0
-35.5924 -44.1567 0.00016706 0 200 0
-35.5942 -44.152 0.000222747 0 200 0
-35.596 -44.1474 0.000278433 0 200 0
-35.5978 -44.1427 0.00033412 0 200 0
-35.5996 -44.138 0.000389807 0 200 0
-35.6013 -44.1333 0.000445493 0 200 0
-35.6031 -44.1287 0.00050118 0 200 0
-35.6049 -44.124 0.000556867 0 200 0
-35.6067 -44.1193 0.000612553 0 200 0
-35.6085 -44.1147 0.00066824 0 200 0
-35.6103 -44.11 0.000723926 0 200 0
-35.612 -44.1053 0.000779613 0 200 0
-35.6138 -44.1006 0.0008353 0 200 0
-35.6156 -44.096 0.000890986 0 200 0
-35.6174 -44.0913 0.000946673 0 200 0
-35.6192 -44.0866 0.00100236 0 200 0
-35.621 -44.082 0.00105805 0 200 0
-35.6228 -44.0773 0.00111373 0 200 0
-35.6245 -44.0726 0.00116942 0 200 0
-35.6263 -44.068 0.00122511 0 200 0
-35.6281 -44.0633 0.00128079 0 200 0
-35.6299 -44.0586 0.00133648 0 200 0
-35.6317 -44.0539 0.00139217 0 200 0
-35.6335 -44.0493 0.00144785 0 200 0
-35.6352 -44.0446 0.00150354 0 200 0
-35.637 -44.0399 0.00155923 0 200 0
-35.6388 -44.0353 0.00161491 0 200 0
-35.6406 -44.0306 0.0016706 0 200 0
-35.6424 -44.0259 0.00172629 0 200 0
-35.6442 -44.0212 0.00178197 0 200 0
-35.6459 -44.0166 0.00183766 0 200 0
-35.6477 -44.0119 0.00189335 0 200 0
-35.6495 -44.0072 0.00194903 0 200 0
-35.6513 -44.0026 0.00200472 0 200 0
-35.6531 -43.9979 0.00206041 0 200 0
-35.6549 -43.9932 0.00211609 0 200 0
-35.6566 -43.9885 0.00217178 0 200 0
-35.6584 -43.9839 0.00222747 0 200 0
-35.6602 -43.9792 0.00228315 0 200 0
-35.662 -43.9745 0.00233884 0 200 0
-35.6638 -43.9699 0.00239453 0 200 0
-35.6656 -43.9652 0.00245021 0 200 0
-35.6673 -43.9605 0.0025059 0 200 0
-35.6691 -43.9559 0.00256159 0 200 0
-35.6709 -43.9512 0.00261727 0 200 0
-35.6727 -43.9465 0.00267296 0 200 0
-35.6745 -43.9418 0.00272865 0 200 0
-35.6763 -43.9372 0.00278433 0 200 0
-35.678 -43.9325 0.00284002 0 200 0
-35.6798 -43.9278 0.00289571 0 200 0
-35.6816 -43.9232 0.00295139 0 200 0
-35.6834 -43.9185 0.00300708 0 200 0
-35.6852 -43.9138 0.00306277 0 200 0
-35.687 -43.9091 0.00311845 0 200 0
-35.6887 -43.9045 0.00317414 0 200 0
-35.6905 -43.8998 0.00322983 0 200 0
-35.6923 -43.8951 0.00328551 0 200 0
-35.6941 -43.8905 0.0033412 0 200 0
-35.6959 -43.8858 0.00339689 0 200 0
-35.6977 -43.8811 0.00345257 0 200 0
-35.6994 -43.8765 0.00350826 0 200 0
-35.7012 -43.8718 0.00356395 0 200 0
-35.703 -43.8671 0.00361963 0 200 0
-35.7048 -43.8624 0.00367532 0 200 0
-35.7066 -43.8578 0.00373101 0 200 0
-35.7084 -43.8531 0.00378669 0 200 0
-35.7101 -43.8484 0.00384238 0 200 0
-35.7119 -43.8438 0.00389807 0 200 0
-35.7137 -43.8391 0.00395375 0 200 0
-35.7155 -43.8344 0.00400944 0 200 0
-35.7173 -43.8297 0.00406513 0 200 0
-35.7191 -43.8251 0.00412081 0 200 0
-35.7209 -43.8204 0.0041765 0 200 0
-35.7226 -43.8157 0.00423219 0 200 0
-35.7244 -43.8111 0.00428787 0 200 0
-35.7262 -43.8064 0.00434356 0 200 0
-35.728 -43.8017 0.00439925 0 200 0
-35.7298 -43.7971 0.00445493 0 200 0
-35.7316 -43.7924 0.00451062 0 200 0
-35.7333 -43.7877 0.00456631 0 200 0
-35.7351 -43.783 0.00462199 0 200 0
-35.7369 -43.7784 0.00467768 0 200 0
-35.7387 -43.7737 0.00473337 0 200 0
-35.7405 -43.769 0.00478905 0 200 0
-35.7423 -43.7644 0.00484474 0 200 0
-35.744 -43.7597 0.00490043 0 200 0
-35.7458 -43.755 0.00495611 0 200 0
-35.7476 -43.7503 0.0050118 0 200 0
-35.7494 -43.7457 0.00506748 0 200 0
-35.7512 -43.741 0.00512317 0 200 0
-35.753 -43.7363 0.00517886 0 200 0
-35.7547 -43.7317 0.00523455 0 200 0
-35.7565 -43.727 0.00529023 0 200 0
-35.7583 -43.7223 0.00534592 0 200 0
-35.7601 -43.7176 0.0054016 0 200 0
-35.7619 -43.713 0.00545729 0 200 0
-35.7637 -43.7083 0.00551298 0 200 0
-36.3983 -43.6855 0 0 200 0
-36.3995 -43.6806 -1.7984e-05 0 200 0
-36.4007 -43.6758 -3.59679e-05 0 200 0
-36.4019 -43.6709 -5.39519e-05 0 200 0
-36.4032 -43.6661 -7.19359e-05 0 200 0
-36.4044 -43.6612 -8.99199e-05 0 200 0
-36.4056 -43.6564 -0.000107904 0 200 0
-36.4068 -43.6515 -0.000125888 0 200 0
-36.408 -43.6467 -0.000143872 0 200 0
-36.4092 -43.6418 -0.000161856 0 200 0
-36.4105 -43.637 -0.00017984 0 200 0
-36.4117 -43.6321 -0.000197824 0 200 0
-36.4129 -43.6273 -0.000215808 0 200 0
-36.4141 -43.6224 -0.000233792 0 200 0
-36.4153 -43.6176 -0.000251776 0 200 0
-36.4165 -43.6127 -0.00026976 0 200 0
-36.4178 -43.6079 -0.000287744 0 200 0
-36.419 -43.603 -0.000305728 0 200 0
-36.4202 -43.5982 -0.000323712 0 200 0
-36.4214 -43.5933 -0.000341695 0 200 0
-36.4226 -43.5885 -0.000359679 0 200 0
-36.4238 -43.5836 -0.000377663 0 200 0
-36.425 -43.5788 -0.000395647 0 200 0
-36.4263 -43.5739 -0.000413631 0 200 0
-36.4275 -43.5691 -0.000431615 0 200 0
-36.4287 -43.5642 -0.000449599 0 200 0
-36.4299 -43.5594 -0.000467583 0 200 0
-36.4311 -43.5545 -0.000485567 0 200 0
-36.4323 -43.5497 -0.000503551 0 200 0
-36.4336 -43.5448 -0.000521535 0 200 0
-36.4348 -43.54 -0.000539519 0 200 0
-36.436 -43.5351 -0.000557503 0 200 0
-36.4372 -43.5303 -0.000575487 0 200 0
-36.4384 -43.5254 -0.000593471 0 200 0
-36.4396 -43.5206 -0.000611455 0 200 0
-36.4409 -43.5157 -0.000629439 0 200 0
-36.4421 -43.5109 -0.000647423 0 200 0
-36.4433 -43.5061 -0.000665407 0 200 0
-36.4445 -43.5012 -0.000683391 0 200 0
-36.4457 -43.4963 -0.000701375 0 200 0
-36.4469 -43.4915 -0.000719359 0 200 0
-36.4482 -43.4866 -0.000737343 0 200 0
-36.4494 -43.4818 -0.000755327 0 200 0
-36.4506 -43.477 -0.000773311 0 200 0
-36.4518 -43.4721 -0.000791295 0 200 0
-36.453 -43.4673 -0.000809279 0 200 0
-36.4542 -43.4624 -0.000827263 0 200 0
-36.4555 -43.4576 -0.000845247 0 200 0
-36.4567 -43.4527 -0.000863231 0 200 0
-36.4579 -43.4479 -0.000881215 0 200 0
-36.4591 -43.443 -0.000899199 0 200 0
-36.4603 -43.4382 -0.000917183 0 200 0
-36.4615 -43.4333 -0.000935167 0 200 0
-36.4627 -43.4285 -0.000953151 0 200 0
-36.464 -43.4236 -0.000971135 0 200 0
-36.4652 -43.4188 -0.000989118 0 200 0
-36.4664 -43.4139 -0.0010071 0 200 0
-36.4676 -43.4091 -0.00102509 0 200 0
-36.4688 -43.4042 -0.00104307 0 200 0
-36.47 -43.3994 -0.00106105 0 200 0
-36.4713 -43.3945 -0.00107904 0 200 0
-36.4725 -43.3897 -0.00109702 0 200 0
-36.4737 -43.3848 -0.00111501 0 200 0
-36.4749 -43.38 -0.00113299 0 200 0
-36.4761 -43.3751 -0.00115097 0 200 0
-36.4773 -43.3703 -0.00116896 0 200 0
-36.4786 -43.3654 -0.00118694 0 200 0
-36.4798 -43.3606 -0.00120493 0 200 0
-36.481 -43.3557 -0.00122291 0 200 0
-36.4822 -43.3509 -0.00124089 0 200 0
-36.4834 -43.346 -0.00125888 0 200 0
-36.4846 -43.3412 -0.00127686 0 200 0
-36.4859 -43.3363 -0.00129485 0 200 0
-36.4871 -43.3315 -0.00131283 0 200 0
-36.4883 -43.3266 -0.00133081 0 200 0
-36.4895 -43.3218 -0.0013488 0 200 0
-36.4907 -43.3169 -0.00136678 0 200 0
-36.4919 -43.3121 -0.00138477 0 200 0
-36.4932 -43.3072 -0.00140275 0 200 0
-36.4944 -43.3024 -0.00142073 0 200 0
-36.4956 -43.2975 -0.00143872 0 200 0
-36.4968 -43.2927 -0.0014567 0 200 0
-36.498 -43.2878 -0.00147469 0 200 0
-36.4992 -43.283 -0.00149267 0 200 0
-36.5005 -43.2781 -0.00151065 0 200 0
-36.5017 -43.2733 -0.00152864 0 200 0
-36.5029 -43.2684 -0.00154662 0 200 0
-36.5041 -43.2636 -0.00156461 0 200 0
-36.5053 -43.2587 -0.00158259 0 200 0
-36.5065 -43.2539 -0.00160057 0 200 0
-36.5077 -43.249 -0.00161856 0 200 0
-36.509 -43.2442 -0.00163654 0 200 0
-36.5102 -43.2393 -0.00165453 0 200 0
-36.5114 -43.2345 -0.00167251 0 200 0
-36.5126 -43.2296 -0.00169049 0 200 0
-36.5138 -43.2248 -0.00170848 0 200 0
-36.515 -43.2199 -0.00172646 0 200 0
-36.5163 -43.2151 -0.00174445 0 200 0
-36.5175 -43.2102 -0.00176243 0 200 0
-36.5187 -43.2054 -0.00178041 0 200 0
-37.0882 -43.2848 0 0 200 0
-37.0883 -43.2798 -0.000365688 0 200 0
-37.0884 -43.2748 -0.000731376 0 200 0
-37.0885 -43.2699 -0.00109706 0 200 0
-37.0885 -43.2649 -0.00146275 0 200 0
-37.0886 -43.2599 -0.00182844 0 200 0
-37.0887 -43.2549 -0.00219413 0 200 0
-37.0888 -43.2499 -0.00255982 0 200 0
-37.0888 -43.2449 -0.0029255 0 200 0
-37.0889 -43.2399 -0.00329119 0 200 0
-37.089 -43.235 -0.00365688 0 200 0
-37.0891 -43.23 -0.00402257 0 200 0
-37.0891 -43.225 -0.00438825 0 200 0
-37.0892 -43.22 -0.00475394 0 200 0
-37.0893 -43.215 -0.00511963 0 200 0
-37.0894 -43.21 -0.00548532 0 200 0
-37.0894 -43.205 -0.00585101 0 200 0
-37.0895 -43.2001 -0.00621669 0 200 0
-37.0896 -43.1951 -0.00658238 0 200 0
-37.0897 -43.1901 -0.00694807 0 200 0
-37.0898 -43.1851 -0.00731376 0 200 0
-37.0898 -43.1801 -0.00767945 0 200 0
-37.0899 -43.1751 -0.00804513 0 200 0
-37.09 -43.1701 -0.00841082 0 200 0
-37.0901 -43.1652 -0.00877651 0 200 0
-37.0901 -43.1602 -0.0091422 0 200 0
-37.0902 -43.1552 -0.00950788 0 200 0
-37.0903 -43.1502 -0.00987357 0 200 0
-37.0904 -43.1452 -0.0102393 0 200 0
-37.0904 -43.1402 -0.0106049 0 200 0
-37.0905 -43.1352 -0.0109706 0 200 0
-37.0906 -43.1303 -0.0113363 0 200 0
-37.0907 -43.1253 -0.011702 0 200 0
-37.0907 -43.1203 -0.0120677 0 200 0
-37.0908 -43.1153 -0.0124334 0 200 0
-37.0909 -43.1103 -0.0127991 0 200 0
-37.091 -43.1053 -0.0131648 0 200 0
-37.0911 -43.1003 -0.0135305 0 200 0
-37.0911 -43.0954 -0.0138961 0 200 0
-37.0912 -43.0904 -0.0142618 0 200 0
-37.0913 -43.0854 -0.0146275 0 200 0
-37.0914 -43.0804 -0.0149932 0 200 0
-37.0914 -43.0754 -0.0153589 0 200 0
-37.0915 -43.0704 -0.0157246 0 200 0
-37.0916 -43.0654 -0.0160903 0 200 0
-37.0917 -43.0605 -0.016456 0 200 0
-37.0917 -43.0555 -0.0168216 0 200 0
-37.0918 -43.0505 -0.0171873 0 200 0
-37.0919 -43.0455 -0.017553 0 200 0
-37.092 -43.0405 -0.0179187 0 200 0
-37.092 -43.0355 -0.0182844 0 200 0
-37.0921 -43.0305 -0.0186501 0 200 0
-37.0922 -43.0255 -0.0190158 0 200 0
-37.0923 -43.0206 -0.0193815 0 200 0
-37.0924 -43.0156 -0.0197471 0 200 0
-37.0924 -43.0106 -0.0201128 0 200 0
-37.0925 -43.0056 -0.0204785 0 200 0
-37.0926 -43.0006 -0.0208442 0 200 0
-37.0927 -42.9956 -0.0212099 0 200 0
-37.0927 -42.9906 -0.0215756 0 200 0
-37.0928 -42.9857 -0.0219413 0 200 0
-37.0929 -42.9807 -0.022307 0 200 0
-37.093 -42.9757 -0.0226726 0 200 0
-37.093 -42.9707 -0.0230383 0 200 0
-37.0931 -42.9657 -0.023404 0 200 0
-37.0932 -42.9607 -0.0237697 0 200 0
-37.0933 -42.9557 -0.0241354 0 200 0
-37.0933 -42.9508 -0.0245011 0 200 0
-37.0934 -42.9458 -0.0248668 0 200 0
-37.0935 -42.9408 -0.0252325 0 200 0
-37.0936 -42.9358 -0.0255982 0 200 0
-37.0936 -42.9308 -0.0259638 0 200 0
-37.0937 -42.9258 -0.0263295 0 200 0
-37.0938 -42.9208 -0.0266952 0 200 0
-37.0939 -42.9159 -0.0270609 0 200 0
-37.094 -42.9109 -0.0274266 0 200 0
-37.094 -42.9059 -0.0277923 0 200 0
-37.0941 -42.9009 -0.028158 0 200 0
-37.0942 -42.8959 -0.0285237 0 200 0
-37.0943 -42.8909 -0.0288893 0 200 0
