ply
format ascii 1.0
element vertex 1300
property float x
property float y
property float z
property uchar red
property uchar green
property uchar blue
element face 0
property list uchar int vertex_indices
end_header
-14.0705 -10.5143 -0.0832807 0 200 0
-14.0722 -10.5189 -0.0841859 0 200 0
-14.0738 -10.5236 -0.0850911 0 200 0
-14.0754 -10.5282 -0.0859964 0 200 0
-14.077 -10.5329 -0.0869016 0 200 0
-14.0786 -10.5375 -0.0878068 0 200 0
-14.0802 -10.5421 -0.088712 0 200 0
-14.0818 -10.5468 -0.0896173 0 200 0
-14.5574 -11.0647 0 0 200 0
-14.5591 -11.0694 -0.000818391 0 200 0
-14.5607 -11.074 -0.00163678 0 200 0
-14.5624 -11.0787 -0.00245517 0 200 0
-14.5641 -11.0833 -0.00327357 0 200 0
-14.5657 -11.088 -0.00409196 0 200 0
-14.5674 -11.0926 -0.00491035 0 200 0
-14.569 -11.0972 -0.00572874 0 200 0
-14.5707 -11.1019 -0.00654713 0 200 0
-14.5724 -11.1065 -0.00736552 0 200 0
-14.574 -11.1112 -0.00818391 0 200 0
-14.5757 -11.1158 -0.00900231 0 200 0
-14.5773 -11.1205 -0.0098207 0 200 0
-14.579 -11.1251 -0.0106391 0 200 0
-14.5807 -11.1298 -0.0114575 0 200 0
-14.5823 -11.1344 -0.0122759 0 200 0
-14.584 -11.1391 -0.0130943 0 200 0
-14.5856 -11.1437 -0.0139127 0 200 0
-14.5873 -11.1483 -0.014731 0 200 0
-14.589 -11.153 -0.0155494 0 200 0
-14.5906 -11.1576 -0.0163678 0 200 0
-14.5923 -11.1623 -0.0171862 0 200 0
-14.5939 -11.1669 -0.0180046 0 200 0
-14.5956 -11.1716 -0.018823 0 200 0
-14.5972 -11.1762 -0.0196414 0 200 0
-14.5989 -11.1809 -0.0204598 0 200 0
-14.6006 -11.1855 -0.0212782 0 200 0
-14.6022 -11.1901 -0.0220966 0 200 0
-14.6039 -11.1948 -0.022915 0 200 0
-14.6055 -11.1994 -0.0237334 0 200 0
-14.6072 -11.2041 -0.0245517 0 200 0
-14.6089 -11.2087 -0.0253701 0 200 0
-14.6105 -11.2134 -0.0261885 0 200 0
-14.6122 -11.218 -0.0270069 0 200 0
-14.6138 -11.2227 -0.0278253 0 200 0
-14.6155 -11.2273 -0.0286437 0 200 0
-14.6172 -11.232 -0.0294621 0 200 0
-14.6188 -11.2366 -0.0302805 0 200 0
-14.6205 -11.2412 -0.0310989 0 200 0
-14.6221 -11.2459 -0.0319173 0 200 0
-14.6238 -11.2505 -0.0327357 0 200 0
-14.6254 -11.2552 -0.033554 0 200 0
-14.6271 -11.2598 -0.0343724 0 200 0
-14.6288 -11.2645 -0.0351908 0 200 0
-14.6304 -11.2691 -0.0360092 0 200 0
-14.6321 -11.2738 -0.0368276 0 200 0
-14.6337 -11.2784 -0.037646 0 200 0
-14.6354 -11.2831 -0.0384644 0 200 0
-14.6371 -11.2877 -0.0392828 0 200 0
-14.6387 -11.2923 -0.0401012 0 200 0
-14.6404 -11.297 -0.0409196 0 200 0
-14.642 -11.3016 -0.041738 0 200 0
-14.6437 -11.3063 -0.0425564 0 200 0
-14.6454 -11.3109 -0.0433747 0 200 0
-14.647 -11.3156 -0.0441931 0 200 0
-14.6487 -11.3202 -0.0450115 0 200 0
-14.6503 -11.3249 -0.0458299 0 200 0
-14.652 -11.3295 -0.0466483 0 200 0
-14.6536 -11.3342 -0.0474667 0 200 0
-14.6553 -11.3388 -0.0482851 0 200 0
-14.657 -11.3434 -0.0491035 0 200 0
-14.6586 -11.3481 -0.0499219 0 200 0
-14.6603 -11.3527 -0.0507403 0 200 0
-14.6619 -11.3574 -0.0515587 0 200 0
-14.6636 -11.362 -0.052377 0 200 0
-14.6653 -11.3667 -0.0531954 0 200 0
-14.6669 -11.3713 -0.0540138 0 200 0
-14.6686 -11.376 -0.0548322 0 200 0
-14.6702 -11.3806 -0.0556506 0 200 0
-14.6719 -11.3852 -0.056469 0 200 0
-14.6736 -11.3899 -0.0572874 0 200 0
-14.6752 -11.3945 -0.0581058 0 200 0
-14.6769 -11.3992 -0.0589242 0 200 0
-14.6785 -11.4038 -0.0597426 0 200 0
-14.6802 -11.4085 -0.060561 0 200 0
-14.6818 -11.4131 -0.0613794 0 200 0
-14.6835 -11.4178 -0.0621977 0 200 0
-14.6852 -11.4224 -0.0630161 0 200 0
-14.6868 -11.4271 -0.0638345 0 200 0
-14.6885 -11.4317 -0.0646529 0 200 0
-14.6901 -11.4363 -0.0654713 0 200 0
-14.6918 -11.441 -0.0662897 0 200 0
-14.6935 -11.4456 -0.0671081 0 200 0
-14.6951 -11.4503 -0.0679265 0 200 0
-14.6968 -11.4549 -0.0687449 0 200 0
-14.6984 -11.4596 -0.0695633 0 200 0
-14.7001 -11.4642 -0.0703817 0 200 0
-14.7018 -11.4689 -0.0712001 0 200 0
-14.7034 -11.4735 -0.0720184 0 200 0
-14.7051 -11.4782 -0.0728368 0 200 0
-14.7067 -11.4828 -0.0736552 0 200 0
-14.7084 -11.4874 -0.0744736 0 200 0
-14.71 -11.4921 -0.075292 0 200 0
-14.7117 -11.4967 -0.0761104 0 200 0
-14.7134 -11.5014 -0.0769288 0 200 0
-14.715 -11.506 -0.0777472 0 200 0
-14.7167 -11.5107 -0.0785656 0 200 0
-14.7183 -11.5153 -0.079384 0 200 0
-14.72 -11.52 -0.0802024 0 200 0
-14.7217 -11.5246 -0.0810208 0 200 0
-15.1285 -12.0236 0 0 200 0
-15.13 -12.0283 -0.000991618 0 200 0
-15.1314 -12.033 -0.00198324 0 200 0
-15.1328 -12.0377 -0.00297486 0 200 0
-15.1343 -12.0424 -0.00396647 0 200 0
-15.1357 -12.0471 -0.00495809 0 200 0
-15.1371 -12.0518 -0.00594971 0 200 0
-15.1385 -12.0564 -0.00694133 0 200 0
-15.14 -12.0611 -0.00793295 0 200 0
-15.1414 -12.0658 -0.00892457 0 200 0
-15.1428 -12.0705 -0.00991618 0 200 0
-15.1443 -12.0752 -0.0109078 0 200 0
-15.1457 -12.0799 -0.0118994 0 200 0
-15.1471 -12.0846 -0.012891 0 200 0
-15.1485 -12.0893 -0.0138827 0 200 0
-15.15 -12.0939 -0.0148743 0 200 0
-15.1514 -12.0986 -0.0158659 0 200 0
-15.1528 -12.1033 -0.0168575 0 200 0
-15.1543 -12.108 -0.0178491 0 200 0
-15.1557 -12.1127 -0.0188407 0 200 0
-15.1571 -12.1174 -0.0198324 0 200 0
-15.1585 -12.1221 -0.020824 0 200 0
-15.16 -12.1268 -0.0218156 0 200 0
-15.1614 -12.1314 -0.0228072 0 200 0
-15.1628 -12.1361 -0.0237988 0 200 0
-15.1643 -12.1408 -0.0247905 0 200 0
-15.1657 -12.1455 -0.0257821 0 200 0
-15.1671 -12.1502 -0.0267737 0 200 0
-15.1685 -12.1549 -0.0277653 0 200 0
-15.17 -12.1596 -0.0287569 0 200 0
-15.1714 -12.1643 -0.0297485 0 200 0
-15.1728 -12.1689 -0.0307402 0 200 0
-15.1743 -12.1736 -0.0317318 0 200 0
-15.1757 -12.1783 -0.0327234 0 200 0
-15.1771 -12.183 -0.033715 0 200 0
-15.1785 -12.1877 -0.0347066 0 200 0
-15.18 -12.1924 -0.0356983 0 200 0
-15.1814 -12.1971 -0.0366899 0 200 0
-15.1828 -12.2018 -0.0376815 0 200 0
-15.1843 -12.2064 -0.0386731 0 200 0
-15.1857 -12.2111 -0.0396647 0 200 0
-15.1871 -12.2158 -0.0406564 0 200 0
-15.1885 -12.2205 -0.041648 0 200 0
-15.19 -12.2252 -0.0426396 0 200 0
-15.1914 -12.2299 -0.0436312 0 200 0
-15.1928 -12.2346 -0.0446228 0 200 0
-15.1943 -12.2393 -0.0456144 0 200 0
-15.1957 -12.244 -0.0466061 0 200 0
-15.1971 -12.2486 -0.0475977 0 200 0
-15.1985 -12.2533 -0.0485893 0 200 0
-15.2 -12.258 -0.0495809 0 200 0
-15.2014 -12.2627 -0.0505725 0 200 0
-15.2028 -12.2674 -0.0515642 0 200 0
-15.2043 -12.2721 -0.0525558 0 200 0
-15.2057 -12.2768 -0.0535474 0 200 0
-15.2071 -12.2815 -0.054539 0 200 0
-15.2085 -12.2861 -0.0555306 0 200 0
-15.21 -12.2908 -0.0565222 0 200 0
-15.2114 -12.2955 -0.0575139 0 200 0
-15.2128 -12.3002 -0.0585055 0 200 0
-15.2143 -12.3049 -0.0594971 0 200 0
-15.2157 -12.3096 -0.0604887 0 200 0
-15.2171 -12.3143 -0.0614803 0 200 0
-15.2185 -12.319 -0.062472 0 200 0
-15.22 -12.3236 -0.0634636 0 200 0
-15.2214 -12.3283 -0.0644552 0 200 0
-15.2228 -12.333 -0.0654468 0 200 0
-15.2243 -12.3377 -0.0664384 0 200 0
-15.2257 -12.3424 -0.06743 0 200 0
-15.2271 -12.3471 -0.0684217 0 200 0
-15.2285 -12.3518 -0.0694133 0 200 0
-15.23 -12.3565 -0.0704049 0 200 0
-15.2314 -12.3611 -0.0713965 0 200 0
-15.2328 -12.3658 -0.0723881 0 200 0
-15.2343 -12.3705 -0.0733798 0 200 0
-15.2357 -12.3752 -0.0743714 0 200 0
-15.2371 -12.3799 -0.075363 0 200 0
-15.2385 -12.3846 -0.0763546 0 200 0
-15.24 -12.3893 -0.0773462 0 200 0
-15.2414 -12.394 -0.0783378 0 200 0
-15.2428 -12.3987 -0.0793295 0 200 0
-15.2443 -12.4033 -0.0803211 0 200 0
-15.2457 -12.408 -0.0813127 0 200 0
-15.2471 -12.4127 -0.0823043 0 200 0
-15.2485 -12.4174 -0.0832959 0 200 0
-15.25 -12.4221 -0.0842876 0 200 0
-15.2514 -12.4268 -0.0852792 0 200 0
-15.2528 -12.4315 -0.0862708 0 200 0
-15.2543 -12.4362 -0.0872624 0 200 0
-15.2557 -12.4408 -0.088254 0 200 0
-15.2571 -12.4455 -0.0892456 0 200 0
-15.2585 -12.4502 -0.0902373 0 200 0
-15.26 -12.4549 -0.0912289 0 200 0
-15.2614 -12.4596 -0.0922205 0 200 0
-15.2628 -12.4643 -0.0932121 0 200 0
-15.2643 -12.469 -0.0942037 0 200 0
-15.2657 -12.4737 -0.0951954 0 200 0
-15.2671 -12.4783 -0.096187 0 200 0
-15.2685 -12.483 -0.0971786 0 200 0
-15.27 -12.4877 -0.0981702 0 200 0
-15.6704 -13.0003 0 0 200 0
-15.6717 -13.0051 -0.000636986 0 200 0
-15.673 -13.0099 -0.00127397 0 200 0
-15.6742 -13.0147 -0.00191096 0 200 0
-15.6755 -13.0195 -0.00254794 0 200 0
-15.6768 -13.0243 -0.00318493 0 200 0
-15.678 -13.0291 -0.00382191 0 200 0
-15.6793 -13.0339 -0.0044589 0 200 0
-15.6806 -13.0387 -0.00509589 0 200 0
-15.6818 -13.0435 -0.00573287 0 200 0
-15.6831 -13.0483 -0.00636986 0 200 0
-15.6844 -13.0531 -0.00700684 0 200 0
-15.6856 -13.0579 -0.00764383 0 200 0
-15.6869 -13.0627 -0.00828081 0 200 0
-15.6882 -13.0674 -0.0089178 0 200 0
-15.6895 -13.0722 -0.00955479 0 200 0
-15.6907 -13.077 -0.0101918 0 200 0
-15.692 -13.0818 -0.0108288 0 200 0
-15.6933 -13.0866 -0.0114657 0 200 0
-15.6945 -13.0914 -0.0121027 0 200 0
-15.6958 -13.0962 -0.0127397 0 200 0
-15.6971 -13.101 -0.0133767 0 200 0
-15.6983 -13.1058 -0.0140137 0 200 0
-15.6996 -13.1106 -0.0146507 0 200 0
-15.7009 -13.1154 -0.0152877 0 200 0
-15.7021 -13.1202 -0.0159246 0 200 0
-15.7034 -13.125 -0.0165616 0 200 0
-15.7047 -13.1298 -0.0171986 0 200 0
-15.7059 -13.1346 -0.0178356 0 200 0
-15.7072 -13.1394 -0.0184726 0 200 0
-15.7085 -13.1442 -0.0191096 0 200 0
-15.7097 -13.149 -0.0197466 0 200 0
-15.711 -13.1537 -0.0203835 0 200 0
-15.7123 -13.1585 -0.0210205 0 200 0
-15.7135 -13.1633 -0.0216575 0 200 0
-15.7148 -13.1681 -0.0222945 0 200 0
-15.7161 -13.1729 -0.0229315 0 200 0
-15.7173 -13.1777 -0.0235685 0 200 0
-15.7186 -13.1825 -0.0242055 0 200 0
-15.7199 -13.1873 -0.0248424 0 200 0
-15.7212 -13.1921 -0.0254794 0 200 0
-15.7224 -13.1969 -0.0261164 0 200 0
-15.7237 -13.2017 -0.0267534 0 200 0
-15.725 -13.2065 -0.0273904 0 200 0
-15.7262 -13.2113 -0.0280274 0 200 0
-15.7275 -13.2161 -0.0286644 0 200 0
-15.7288 -13.2209 -0.0293013 0 200 0
-15.73 -13.2257 -0.0299383 0 200 0
-15.7313 -13.2305 -0.0305753 0 200 0
-15.7326 -13.2353 -0.0312123 0 200 0
-15.7338 -13.24 -0.0318493 0 200 0
-15.7351 -13.2448 -0.0324863 0 200 0
-15.7364 -13.2496 -0.0331233 0 200 0
-15.7376 -13.2544 -0.0337602 0 200 0
-15.7389 -13.2592 -0.0343972 0 200 0
-15.7402 -13.264 -0.0350342 0 200 0
-15.7414 -13.2688 -0.0356712 0 200 0
-15.7427 -13.2736 -0.0363082 0 200 0
-15.744 -13.2784 -0.0369452 0 200 0
-15.7452 -13.2832 -0.0375822 0 200 0
-15.7465 -13.288 -0.0382191 0 200 0
-15.7478 -13.2928 -0.0388561 0 200 0
-15.749 -13.2976 -0.0394931 0 200 0
-15.7503 -13.3024 -0.0401301 0 200 0
-15.7516 -13.3072 -0.0407671 0 200 0
-15.7528 -13.312 -0.0414041 0 200 0
-15.7541 -13.3168 -0.0420411 0 200 0
-15.7554 -13.3216 -0.042678 0 200 0
-15.7567 -13.3263 -0.043315 0 200 0
-15.7579 -13.3311 -0.043952 0 200 0
-15.7592 -13.3359 -0.044589 0 200 0
-15.7605 -13.3407 -0.045226 0 200 0
-15.7617 -13.3455 -0.045863 0 200 0
-15.763 -13.3503 -0.0465 0 200 0
-15.7643 -13.3551 -0.0471369 0 200 0
-15.7655 -13.3599 -0.0477739 0 200 0
-15.7668 -13.3647 -0.0484109 0 200 0
-15.7681 -13.3695 -0.0490479 0 200 0
-15.7693 -13.3743 -0.0496849 0 200 0
-15.7706 -13.3791 -0.0503219 0 200 0
-15.7719 -13.3839 -0.0509589 0 200 0
-15.7731 -13.3887 -0.0515958 0 200 0
-15.7744 -13.3935 -0.0522328 0 200 0
-15.7757 -13.3983 -0.0528698 0 200 0
-15.7769 -13.4031 -0.0535068 0 200 0
-15.7782 -13.4079 -0.0541438 0 200 0
-15.7795 -13.4126 -0.0547808 0 200 0
-15.7807 -13.4174 -0.0554178 0 200 0
-15.782 -13.4222 -0.0560547 0 200 0
-15.7833 -13.427 -0.0566917 0 200 0
-15.7845 -13.4318 -0.0573287 0 200 0
-15.7858 -13.4366 -0.0579657 0 200 0
-15.7871 -13.4414 -0.0586027 0 200 0
-15.7884 -13.4462 -0.0592397 0 200 0
-15.7896 -13.451 -0.0598767 0 200 0
-15.7909 -13.4558 -0.0605136 0 200 0
-15.7922 -13.4606 -0.0611506 0 200 0
-15.7934 -13.4654 -0.0617876 0 200 0
-15.7947 -13.4702 -0.0624246 0 200 0
-15.796 -13.475 -0.0630616 0 200 0
-16.2939 -13.9549 0 0 200 0
-16.2973 -13.9584 -0.000817892 0 200 0
-16.3008 -13.962 -0.00163578 0 200 0
-16.3042 -13.9655 -0.00245368 0 200 0
-16.3076 -13.9691 -0.00327157 0 200 0
-16.3111 -13.9726 -0.00408946 0 200 0
-16.3145 -13.9762 -0.00490735 0 200 0
-16.3179 -13.9797 -0.00572525 0 200 0
-16.3214 -13.9832 -0.00654314 0 200 0
-16.3248 -13.9868 -0.00736103 0 200 0
-16.3282 -13.9903 -0.00817892 0 200 0
-16.3317 -13.9939 -0.00899682 0 200 0
-16.3351 -13.9974 -0.00981471 0 200 0
-16.3385 -14.0009 -0.0106326 0 200 0
-16.342 -14.0045 -0.0114505 0 200 0
-16.3454 -14.008 -0.0122684 0 200 0
-16.3488 -14.0116 -0.0130863 0 200 0
-16.3523 -14.0151 -0.0139042 0 200 0
-16.3557 -14.0187 -0.0147221 0 200 0
-16.3591 -14.0222 -0.01554 0 200 0
-16.3626 -14.0257 -0.0163578 0 200 0
-16.366 -14.0293 -0.0171757 0 200 0
-16.3694 -14.0328 -0.0179936 0 200 0
-16.3729 -14.0364 -0.0188115 0 200 0
-16.3763 -14.0399 -0.0196294 0 200 0
-16.3797 -14.0434 -0.0204473 0 200 0
-16.3832 -14.047 -0.0212652 0 200 0
-16.3866 -14.0505 -0.0220831 0 200 0
-16.39 -14.0541 -0.022901 0 200 0
-16.3935 -14.0576 -0.0237189 0 200 0
-16.3969 -14.0612 -0.0245368 0 200 0
-16.4003 -14.0647 -0.0253547 0 200 0
-16.4038 -14.0682 -0.0261726 0 200 0
-16.4072 -14.0718 -0.0269904 0 200 0
-16.4106 -14.0753 -0.0278083 0 200 0
-16.4141 -14.0789 -0.0286262 0 200 0
-16.4175 -14.0824 -0.0294441 0 200 0
-16.4209 -14.0859 -0.030262 0 200 0
-16.4244 -14.0895 -0.0310799 0 200 0
-16.4278 -14.093 -0.0318978 0 200 0
-16.4312 -14.0966 -0.0327157 0 200 0
-16.4347 -14.1001 -0.0335336 0 200 0
-16.4381 -14.1036 -0.0343515 0 200 0
-16.4415 -14.1072 -0.0351694 0 200 0
-16.445 -14.1107 -0.0359873 0 200 0
-16.4484 -14.1143 -0.0368052 0 200 0
-16.4518 -14.1178 -0.0376231 0 200 0
-16.4553 -14.1214 -0.0384409 0 200 0
-16.4587 -14.1249 -0.0392588 0 200 0
-16.4622 -14.1284 -0.0400767 0 200 0
-16.4656 -14.132 -0.0408946 0 200 0
-16.469 -14.1355 -0.0417125 0 200 0
-16.4725 -14.1391 -0.0425304 0 200 0
-16.4759 -14.1426 -0.0433483 0 200 0
-16.4793 -14.1461 -0.0441662 0 200 0
-16.4828 -14.1497 -0.0449841 0 200 0
-16.4862 -14.1532 -0.045802 0 200 0
-16.4896 -14.1568 -0.0466199 0 200 0
-16.4931 -14.1603 -0.0474378 0 200 0
-16.4965 -14.1639 -0.0482557 0 200 0
-16.4999 -14.1674 -0.0490735 0 200 0
-16.5034 -14.1709 -0.0498914 0 200 0
-16.5068 -14.1745 -0.0507093 0 200 0
-16.5102 -14.178 -0.0515272 0 200 0
-16.5137 -14.1816 -0.0523451 0 200 0
-16.5171 -14.1851 -0.053163 0 200 0
-16.5205 -14.1886 -0.0539809 0 200 0
-16.524 -14.1922 -0.0547988 0 200 0
-16.5274 -14.1957 -0.0556167 0 200 0
-16.5308 -14.1993 -0.0564346 0 200 0
-16.5343 -14.2028 -0.0572525 0 200 0
-16.5377 -14.2064 -0.0580704 0 200 0
-16.5411 -14.2099 -0.0588883 0 200 0
-16.5446 -14.2134 -0.0597061 0 200 0
-16.548 -14.217 -0.060524 0 200 0
-16.5514 -14.2205 -0.0613419 0 200 0
-16.5549 -14.2241 -0.0621598 0 200 0
-16.5583 -14.2276 -0.0629777 0 200 0
-16.5617 -14.2311 -0.0637956 0 200 0
-16.5652 -14.2347 -0.0646135 0 200 0
-16.5686 -14.2382 -0.0654314 0 200 0
-16.572 -14.2418 -0.0662493 0 200 0
-16.5755 -14.2453 -0.0670672 0 200 0
-16.5789 -14.2488 -0.0678851 0 200 0
-16.5823 -14.2524 -0.068703 0 200 0
-16.5858 -14.2559 -0.0695209 0 200 0
-16.5892 -14.2595 -0.0703387 0 200 0
-16.5926 -14.263 -0.0711566 0 200 0
-16.5961 -14.2666 -0.0719745 0 200 0
-16.5995 -14.2701 -0.0727924 0 200 0
-16.6029 -14.2736 -0.0736103 0 200 0
-16.6064 -14.2772 -0.0744282 0 200 0
-16.6098 -14.2807 -0.0752461 0 200 0
-16.6132 -14.2843 -0.076064 0 200 0
-16.6167 -14.2878 -0.0768819 0 200 0
-16.6201 -14.2913 -0.0776998 0 200 0
-16.6235 -14.2949 -0.0785177 0 200 0
-16.627 -14.2984 -0.0793356 0 200 0
-16.6304 -14.302 -0.0801535 0 200 0
-16.6338 -14.3055 -0.0809713 0 200 0
-16.9101 -14.8786 0 0 200 0
-16.914 -14.8816 -0.000835368 0 200 0
-16.918 -14.8845 -0.00167074 0 200 0
-16.9219 -14.8875 -0.0025061 0 200 0
-16.9259 -14.8904 -0.00334147 0 200 0
-16.9298 -14.8934 -0.00417684 0 200 0
-16.9338 -14.8963 -0.00501221 0 200 0
-16.9377 -14.8993 -0.00584757 0 200 0
-16.9417 -14.9022 -0.00668294 0 200 0
-16.9456 -14.9052 -0.00751831 0 200 0
-16.9496 -14.9081 -0.00835368 0 200 0
-16.9535 -14.9111 -0.00918905 0 200 0
-16.9575 -14.914 -0.0100244 0 200 0
-16.9614 -14.917 -0.0108598 0 200 0
-16.9654 -14.9199 -0.0116951 0 200 0
-16.9693 -14.9229 -0.0125305 0 200 0
-16.9733 -14.9258 -0.0133659 0 200 0
-16.9772 -14.9288 -0.0142013 0 200 0
-16.9812 -14.9317 -0.0150366 0 200 0
-16.9851 -14.9347 -0.015872 0 200 0
-16.9891 -14.9376 -0.0167074 0 200 0
-16.993 -14.9406 -0.0175427 0 200 0
-16.997 -14.9435 -0.0183781 0 200 0
-17.0009 -14.9465 -0.0192135 0 200 0
-17.0049 -14.9494 -0.0200488 0 200 0
-17.0088 -14.9524 -0.0208842 0 200 0
-17.0128 -14.9553 -0.0217196 0 200 0
-17.0167 -14.9583 -0.0225549 0 200 0
-17.0207 -14.9612 -0.0233903 0 200 0
-17.0246 -14.9642 -0.0242257 0 200 0
-17.0286 -14.9671 -0.025061 0 200 0
-17.0325 -14.9701 -0.0258964 0 200 0
-17.0365 -14.973 -0.0267318 0 200 0
-17.0404 -14.976 -0.0275671 0 200 0
-17.0443 -14.9789 -0.0284025 0 200 0
-17.0483 -14.9819 -0.0292379 0 200 0
-17.0522 -14.9849 -0.0300732 0 200 0
-17.0562 -14.9878 -0.0309086 0 200 0
-17.0601 -14.9908 -0.031744 0 200 0
-17.0641 -14.9937 -0.0325793 0 200 0
-17.068 -14.9967 -0.0334147 0 200 0
-17.072 -14.9996 -0.0342501 0 200 0
-17.0759 -15.0026 -0.0350854 0 200 0
-17.0799 -15.0055 -0.0359208 0 200 0
-17.0838 -15.0085 -0.0367562 0 200 0
-17.0878 -15.0114 -0.0375916 0 200 0
-17.0917 -15.0144 -0.0384269 0 200 0
-17.0957 -15.0173 -0.0392623 0 200 0
-17.0996 -15.0203 -0.0400977 0 200 0
-17.1036 -15.0232 -0.040933 0 200 0
-17.1075 -15.0262 -0.0417684 0 200 0
-17.1115 -15.0291 -0.0426038 0 200 0
-17.1154 -15.0321 -0.0434391 0 200 0
-17.1194 -15.035 -0.0442745 0 200 0
-17.1233 -15.038 -0.0451099 0 200 0
-17.1273 -15.0409 -0.0459452 0 200 0
-17.1312 -15.0439 -0.0467806 0 200 0
-17.1352 -15.0468 -0.047616 0 200 0
-17.1391 -15.0498 -0.0484513 0 200 0
-17.1431 -15.0527 -0.0492867 0 200 0
-17.147 -15.0557 -0.0501221 0 200 0
-17.151 -15.0586 -0.0509574 0 200 0
-17.1549 -15.0616 -0.0517928 0 200 0
-17.1589 -15.0645 -0.0526282 0 200 0
-17.1628 -15.0675 -0.0534635 0 200 0
-17.1668 -15.0704 -0.0542989 0 200 0
-17.1707 -15.0734 -0.0551343 0 200 0
-17.1747 -15.0763 -0.0559696 0 200 0
-17.1786 -15.0793 -0.056805 0 200 0
-17.1826 -15.0822 -0.0576404 0 200 0
-17.1865 -15.0852 -0.0584757 0 200 0
-17.1904 -15.0881 -0.0593111 0 200 0
-17.1944 -15.0911 -0.0601465 0 200 0
-17.1983 -15.0941 -0.0609818 0 200 0
-17.2023 -15.097 -0.0618172 0 200 0
-17.2062 -15.1 -0.0626526 0 200 0
-17.2102 -15.1029 -0.063488 0 200 0
-17.2141 -15.1059 -0.0643233 0 200 0
-17.2181 -15.1088 -0.0651587 0 200 0
-17.222 -15.1118 -0.0659941 0 200 0
-17.226 -15.1147 -0.0668294 0 200 0
-17.2299 -15.1177 -0.0676648 0 200 0
-17.2339 -15.1206 -0.0685002 0 200 0
-17.2378 -15.1236 -0.0693355 0 200 0
-17.2418 -15.1265 -0.0701709 0 200 0
-17.2457 -15.1295 -0.0710063 0 200 0
-17.2497 -15.1324 -0.0718416 0 200 0
-17.2536 -15.1354 -0.072677 0 200 0
-17.2576 -15.1383 -0.0735124 0 200 0
-17.2615 -15.1413 -0.0743477 0 200 0
-17.2655 -15.1442 -0.0751831 0 200 0
-17.2694 -15.1472 -0.0760185 0 200 0
-17.2734 -15.1501 -0.0768538 0 200 0
-17.2773 -15.1531 -0.0776892 0 200 0
-17.2813 -15.156 -0.0785246 0 200 0
-17.2852 -15.159 -0.0793599 0 200 0
-17.2892 -15.1619 -0.0801953 0 200 0
-17.2931 -15.1649 -0.0810307 0 200 0
-17.2971 -15.1678 -0.081866 0 200 0
-17.301 -15.1708 -0.0827014 0 200 0
-17.5193 -15.8113 0 0 200 0
-17.5229 -15.8147 -0.000417998 0 200 0
-17.5265 -15.8181 -0.000835996 0 200 0
-17.5302 -15.8216 -0.00125399 0 200 0
-17.5338 -15.825 -0.00167199 0 200 0
-17.5374 -15.8284 -0.00208999 0 200 0
-17.541 -15.8319 -0.00250799 0 200 0
-17.5446 -15.8353 -0.00292599 0 200 0
-17.5482 -15.8388 -0.00334399 0 200 0
-17.5518 -15.8422 -0.00376198 0 200 0
-17.5554 -15.8456 -0.00417998 0 200 0
-17.559 -15.8491 -0.00459798 0 200 0
-17.5626 -15.8525 -0.00501598 0 200 0
-17.5662 -15.8559 -0.00543398 0 200 0
-17.5698 -15.8594 -0.00585198 0 200 0
-17.5735 -15.8628 -0.00626997 0 200 0
-17.5771 -15.8662 -0.00668797 0 200 0
-17.5807 -15.8697 -0.00710597 0 200 0
-17.5843 -15.8731 -0.00752397 0 200 0
-17.5879 -15.8766 -0.00794197 0 200 0
-17.5915 -15.88 -0.00835996 0 200 0
-17.5951 -15.8834 -0.00877796 0 200 0
-17.5987 -15.8869 -0.00919596 0 200 0
-17.6023 -15.8903 -0.00961396 0 200 0
-17.6059 -15.8937 -0.010032 0 200 0
-17.6095 -15.8972 -0.01045 0 200 0
-17.6131 -15.9006 -0.010868 0 200 0
-17.6167 -15.904 -0.011286 0 200 0
-17.6204 -15.9075 -0.011704 0 200 0
-17.624 -15.9109 -0.0121219 0 200 0
-17.6276 -15.9144 -0.0125399 0 200 0
-17.6312 -15.9178 -0.0129579 0 200 0
-17.6348 -15.9212 -0.0133759 0 200 0
-17.6384 -15.9247 -0.0137939 0 200 0
-17.642 -15.9281 -0.0142119 0 200 0
-17.6456 -15.9315 -0.0146299 0 200 0
-17.6492 -15.935 -0.0150479 0 200 0
-17.6528 -15.9384 -0.0154659 0 200 0
-17.6564 -15.9418 -0.0158839 0 200 0
-17.66 -15.9453 -0.0163019 0 200 0
-17.6636 -15.9487 -0.0167199 0 200 0
-17.6673 -15.9522 -0.0171379 0 200 0
-17.6709 -15.9556 -0.0175559 0 200 0
-17.6745 -15.959 -0.0179739 0 200 0
-17.6781 -15.9625 -0.0183919 0 200 0
-17.6817 -15.9659 -0.0188099 0 200 0
-17.6853 -15.9693 -0.0192279 0 200 0
-17.6889 -15.9728 -0.0196459 0 200 0
-17.6925 -15.9762 -0.0200639 0 200 0
-17.6961 -15.9796 -0.0204819 0 200 0
-17.6997 -15.9831 -0.0208999 0 200 0
-17.7033 -15.9865 -0.0213179 0 200 0
-17.7069 -15.99 -0.0217359 0 200 0
-17.7106 -15.9934 -0.0221539 0 200 0
-17.7142 -15.9968 -0.0225719 0 200 0
-17.7178 -16.0003 -0.0229899 0 200 0
-17.7214 -16.0037 -0.0234079 0 200 0
-17.725 -16.0071 -0.0238259 0 200 0
-17.7286 -16.0106 -0.0242439 0 200 0
-17.7322 -16.014 -0.0246619 0 200 0
-17.7358 -16.0174 -0.0250799 0 200 0
-17.7394 -16.0209 -0.0254979 0 200 0
-17.743 -16.0243 -0.0259159 0 200 0
-17.7466 -16.0277 -0.0263339 0 200 0
-17.7502 -16.0312 -0.0267519 0 200 0
-17.7538 -16.0346 -0.0271699 0 200 0
-17.7575 -16.0381 -0.0275879 0 200 0
-17.7611 -16.0415 -0.0280059 0 200 0
-17.7647 -16.0449 -0.0284239 0 200 0
-17.7683 -16.0484 -0.0288419 0 200 0
-17.7719 -16.0518 -0.0292599 0 200 0
-17.7755 -16.0552 -0.0296779 0 200 0
-17.7791 -16.0587 -0.0300959 0 200 0
-17.7827 -16.0621 -0.0305139 0 200 0
-17.7863 -16.0655 -0.0309319 0 200 0
-17.7899 -16.069 -0.0313499 0 200 0
-17.7935 -16.0724 -0.0317679 0 200 0
-17.7971 -16.0759 -0.0321859 0 200 0
-17.8008 -16.0793 -0.0326039 0 200 0
-17.8044 -16.0827 -0.0330219 0 200 0
-17.808 -16.0862 -0.0334399 0 200 0
-17.8116 -16.0896 -0.0338579 0 200 0
-17.8152 -16.093 -0.0342759 0 200 0
-17.8188 -16.0965 -0.0346939 0 200 0
-17.8224 -16.0999 -0.0351119 0 200 0
-17.826 -16.1033 -0.0355298 0 200 0
-17.8296 -16.1068 -0.0359478 0 200 0
-17.8332 -16.1102 -0.0363658 0 200 0
-17.8368 -16.1137 -0.0367838 0 200 0
-17.8404 -16.1171 -0.0372018 0 200 0
-17.844 -16.1205 -0.0376198 0 200 0
-17.8477 -16.124 -0.0380378 0 200 0
-17.8513 -16.1274 -0.0384558 0 200 0
-17.8549 -16.1308 -0.0388738 0 200 0
-17.8585 -16.1343 -0.0392918 0 200 0
-17.8621 -16.1377 -0.0397098 0 200 0
-17.8657 -16.1411 -0.0401278 0 200 0
-17.8693 -16.1446 -0.0405458 0 200 0
-17.8729 -16.148 -0.0409638 0 200 0
-17.8765 -16.1515 -0.0413818 0 200 0
-18.0855 -16.4818 0 0 200 0
-18.0891 -16.4852 -0.000353339 0 200 0
-18.0927 -16.4886 -0.000706677 0 200 0
-18.0963 -16.4921 -0.00106002 0 200 0
-18.1 -16.4955 -0.00141335 0 200 0
-18.1036 -16.499 -0.00176669 0 200 0
-18.1072 -16.5024 -0.00212003 0 200 0
-18.1108 -16.5059 -0.00247337 0 200 0
-18.1144 -16.5093 -0.00282671 0 200 0
-18.118 -16.5127 -0.00318005 0 200 0
-18.1216 -16.5162 -0.00353339 0 200 0
-18.1252 -16.5196 -0.00388672 0 200 0
-18.1288 -16.5231 -0.00424006 0 200 0
-18.1324 -16.5265 -0.0045934 0 200 0
-18.136 -16.53 -0.00494674 0 200 0
-18.1397 -16.5334 -0.00530008 0 200 0
-18.1433 -16.5368 -0.00565342 0 200 0
-18.1469 -16.5403 -0.00600675 0 200 0
-18.1505 -16.5437 -0.00636009 0 200 0
-18.1541 -16.5472 -0.00671343 0 200 0
-18.1577 -16.5506 -0.00706677 0 200 0
-18.1613 -16.5541 -0.00742011 0 200 0
-18.1649 -16.5575 -0.00777345 0 200 0
-18.1685 -16.5609 -0.00812679 0 200 0
-18.1721 -16.5644 -0.00848013 0 200 0
-18.1757 -16.5678 -0.00883346 0 200 0
-18.1794 -16.5713 -0.0091868 0 200 0
-18.183 -16.5747 -0.00954014 0 200 0
-18.1866 -16.5781 -0.00989348 0 200 0
-18.1902 -16.5816 -0.0102468 0 200 0
-18.1938 -16.585 -0.0106002 0 200 0
-18.1974 -16.5885 -0.0109535 0 200 0
-18.201 -16.5919 -0.0113068 0 200 0
-18.2046 -16.5954 -0.0116602 0 200 0
-18.2082 -16.5988 -0.0120135 0 200 0
-18.2118 -16.6022 -0.0123668 0 200 0
-18.2154 -16.6057 -0.0127202 0 200 0
-18.219 -16.6091 -0.0130735 0 200 0
-18.2227 -16.6126 -0.0134269 0 200 0
-18.2263 -16.616 -0.0137802 0 200 0
-18.2299 -16.6195 -0.0141335 0 200 0
-18.2335 -16.6229 -0.0144869 0 200 0
-18.2371 -16.6263 -0.0148402 0 200 0
-18.2407 -16.6298 -0.0151936 0 200 0
-18.2443 -16.6332 -0.0155469 0 200 0
-18.2479 -16.6367 -0.0159002 0 200 0
-18.2515 -16.6401 -0.0162536 0 200 0
-18.2551 -16.6436 -0.0166069 0 200 0
-18.2587 -16.647 -0.0169603 0 200 0
-18.2624 -16.6504 -0.0173136 0 200 0
-18.266 -16.6539 -0.0176669 0 200 0
-18.2696 -16.6573 -0.0180203 0 200 0
-18.2732 -16.6608 -0.0183736 0 200 0
-18.2768 -16.6642 -0.0187269 0 200 0
-18.2804 -16.6677 -0.0190803 0 200 0
-18.284 -16.6711 -0.0194336 0 200 0
-18.2876 -16.6745 -0.019787 0 200 0
-18.2912 -16.678 -0.0201403 0 200 0
-18.2948 -16.6814 -0.0204936 0 200 0
-18.2984 -16.6849 -0.020847 0 200 0
-18.3021 -16.6883 -0.0212003 0 200 0
-18.3057 -16.6918 -0.0215537 0 200 0
-18.3093 -16.6952 -0.021907 0 200 0
-18.3129 -16.6986 -0.0222603 0 200 0
-18.3165 -16.7021 -0.0226137 0 200 0
-18.3201 -16.7055 -0.022967 0 200 0
-18.3237 -16.709 -0.0233203 0 200 0
-18.3273 -16.7124 -0.0236737 0 200 0
-18.3309 -16.7158 -0.024027 0 200 0
-18.3345 -16.7193 -0.0243804 0 200 0
-18.3381 -16.7227 -0.0247337 0 200 0
-18.3418 -16.7262 -0.025087 0 200 0
-18.3454 -16.7296 -0.0254404 0 200 0
-18.349 -16.7331 -0.0257937 0 200 0
-18.3526 -16.7365 -0.0261471 0 200 0
-18.3562 -16.7399 -0.0265004 0 200 0
-18.3598 -16.7434 -0.0268537 0 200 0
-18.3634 -16.7468 -0.0272071 0 200 0
-18.367 -16.7503 -0.0275604 0 200 0
-18.3706 -16.7537 -0.0279137 0 200 0
-18.3742 -16.7572 -0.0282671 0 200 0
-18.3778 -16.7606 -0.0286204 0 200 0
-18.3814 -16.764 -0.0289738 0 200 0
-18.3851 -16.7675 -0.0293271 0 200 0
-18.3887 -16.7709 -0.0296804 0 200 0
-18.3923 -16.7744 -0.0300338 0 200 0
-18.3959 -16.7778 -0.0303871 0 200 0
-18.3995 -16.7813 -0.0307405 0 200 0
-18.4031 -16.7847 -0.0310938 0 200 0
-18.4067 -16.7881 -0.0314471 0 200 0
-18.4103 -16.7916 -0.0318005 0 200 0
-18.4139 -16.795 -0.0321538 0 200 0
-18.4175 -16.7985 -0.0325071 0 200 0
-18.4211 -16.8019 -0.0328605 0 200 0
-18.4248 -16.8054 -0.0332138 0 200 0
-18.4284 -16.8088 -0.0335672 0 200 0
-18.432 -16.8122 -0.0339205 0 200 0
-18.4356 -16.8157 -0.0342738 0 200 0
-18.4392 -16.8191 -0.0346272 0 200 0
-18.4428 -16.8226 -0.0349805 0 200 0
-18.7003 -17.0275 0 0 200 0
-18.704 -17.0308 -0.000562838 0 200 0
-18.7078 -17.0341 -0.00112568 0 200 0
-18.7115 -17.0373 -0.00168851 0 200 0
-18.7153 -17.0406 -0.00225135 0 200 0
-18.719 -17.0439 -0.00281419 0 200 0
-18.7227 -17.0472 -0.00337703 0 200 0
-18.7265 -17.0504 -0.00393987 0 200 0
-18.7302 -17.0537 -0.0045027 0 200 0
-18.7339 -17.057 -0.00506554 0 200 0
-18.7377 -17.0603 -0.00562838 0 200 0
-18.7414 -17.0635 -0.00619122 0 200 0
-18.7451 -17.0668 -0.00675406 0 200 0
-18.7489 -17.0701 -0.00731689 0 200 0
-18.7526 -17.0734 -0.00787973 0 200 0
-18.7563 -17.0766 -0.00844257 0 200 0
-18.7601 -17.0799 -0.00900541 0 200 0
-18.7638 -17.0832 -0.00956824 0 200 0
-18.7676 -17.0865 -0.0101311 0 200 0
-18.7713 -17.0897 -0.0106939 0 200 0
-18.775 -17.093 -0.0112568 0 200 0
-18.7788 -17.0963 -0.0118196 0 200 0
-18.7825 -17.0996 -0.0123824 0 200 0
-18.7862 -17.1028 -0.0129453 0 200 0
-18.79 -17.1061 -0.0135081 0 200 0
-18.7937 -17.1094 -0.0140709 0 200 0
-18.7974 -17.1127 -0.0146338 0 200 0
-18.8012 -17.1159 -0.0151966 0 200 0
-18.8049 -17.1192 -0.0157595 0 200 0
-18.8086 -17.1225 -0.0163223 0 200 0
-18.8124 -17.1258 -0.0168851 0 200 0
-18.8161 -17.129 -0.017448 0 200 0
-18.8199 -17.1323 -0.0180108 0 200 0
-18.8236 -17.1356 -0.0185737 0 200 0
-18.8273 -17.1389 -0.0191365 0 200 0
-18.8311 -17.1421 -0.0196993 0 200 0
-18.8348 -17.1454 -0.0202622 0 200 0
-18.8385 -17.1487 -0.020825 0 200 0
-18.8423 -17.152 -0.0213878 0 200 0
-18.846 -17.1552 -0.0219507 0 200 0
-18.8497 -17.1585 -0.0225135 0 200 0
-18.8535 -17.1618 -0.0230764 0 200 0
-18.8572 -17.1651 -0.0236392 0 200 0
-18.861 -17.1683 -0.024202 0 200 0
-18.8647 -17.1716 -0.0247649 0 200 0
-18.8684 -17.1749 -0.0253277 0 200 0
-18.8722 -17.1782 -0.0258905 0 200 0
-18.8759 -17.1814 -0.0264534 0 200 0
-18.8796 -17.1847 -0.0270162 0 200 0
-18.8834 -17.188 -0.0275791 0 200 0
-18.8871 -17.1913 -0.0281419 0 200 0
-18.8908 -17.1945 -0.0287047 0 200 0
-18.8946 -17.1978 -0.0292676 0 200 0
-18.8983 -17.2011 -0.0298304 0 200 0
-18.902 -17.2044 -0.0303932 0 200 0
-18.9058 -17.2076 -0.0309561 0 200 0
-18.9095 -17.2109 -0.0315189 0 200 0
-18.9133 -17.2142 -0.0320818 0 200 0
-18.917 -17.2175 -0.0326446 0 200 0
-18.9207 -17.2207 -0.0332074 0 200 0
-18.9245 -17.224 -0.0337703 0 200 0
-18.9282 -17.2273 -0.0343331 0 200 0
-18.9319 -17.2306 -0.034896 0 200 0
-18.9357 -17.2338 -0.0354588 0 200 0
-18.9394 -17.2371 -0.0360216 0 200 0
-18.9431 -17.2404 -0.0365845 0 200 0
-18.9469 -17.2437 -0.0371473 0 200 0
-18.9506 -17.2469 -0.0377101 0 200 0
-18.9544 -17.2502 -0.038273 0 200 0
-18.9581 -17.2535 -0.0388358 0 200 0
-18.9618 -17.2568 -0.0393987 0 200 0
-18.9656 -17.26 -0.0399615 0 200 0
-18.9693 -17.2633 -0.0405243 0 200 0
-18.973 -17.2666 -0.0410872 0 200 0
-18.9768 -17.2699 -0.04165 0 200 0
-18.9805 -17.2731 -0.0422128 0 200 0
-18.9842 -17.2764 -0.0427757 0 200 0
-18.988 -17.2797 -0.0433385 0 200 0
-18.9917 -17.283 -0.0439014 0 200 0
-18.9954 -17.2862 -0.0444642 0 200 0
-18.9992 -17.2895 -0.045027 0 200 0
-19.0029 -17.2928 -0.0455899 0 200 0
-19.0067 -17.2961 -0.0461527 0 200 0
-19.0104 -17.2993 -0.0467155 0 200 0
-19.0141 -17.3026 -0.0472784 0 200 0
-19.0179 -17.3059 -0.0478412 0 200 0
-19.0216 -17.3092 -0.0484041 0 200 0
-19.0253 -17.3124 -0.0489669 0 200 0
-19.0291 -17.3157 -0.0495297 0 200 0
-19.0328 -17.319 -0.0500926 0 200 0
-19.0365 -17.3223 -0.0506554 0 200 0
-19.0403 -17.3255 -0.0512183 0 200 0
-19.044 -17.3288 -0.0517811 0 200 0
-19.0478 -17.3321 -0.0523439 0 200 0
-19.0515 -17.3354 -0.0529068 0 200 0
-19.0552 -17.3386 -0.0534696 0 200 0
-19.059 -17.3419 -0.0540324 0 200 0
-19.0627 -17.3452 -0.0545953 0 200 0
-19.0664 -17.3485 -0.0551581 0 200 0
-19.0702 -17.3517 -0.055721 0 200 0
-19.4536 -17.5177 0 0 200 0
-19.4575 -17.5209 -0.000571684 0 200 0
-19.4613 -17.5241 -0.00114337 0 200 0
-19.4651 -17.5272 -0.00171505 0 200 0
-19.4689 -17.5304 -0.00228674 0 200 0
-19.4727 -17.5336 -0.00285842 0 200 0
-19.4766 -17.5368 -0.0034301 0 200 0
-19.4804 -17.5399 -0.00400179 0 200 0
-19.4842 -17.5431 -0.00457347 0 200 0
-19.488 -17.5463 -0.00514515 0 200 0
-19.4918 -17.5495 -0.00571684 0 200 0
-19.4957 -17.5526 -0.00628852 0 200 0
-19.4995 -17.5558 -0.00686021 0 200 0
-19.5033 -17.559 -0.00743189 0 200 0
-19.5071 -17.5622 -0.00800357 0 200 0
-19.5109 -17.5653 -0.00857526 0 200 0
-19.5148 -17.5685 -0.00914694 0 200 0
-19.5186 -17.5717 -0.00971862 0 200 0
-19.5224 -17.5749 -0.0102903 0 200 0
-19.5262 -17.578 -0.010862 0 200 0
-19.53 -17.5812 -0.0114337 0 200 0
-19.5339 -17.5844 -0.0120054 0 200 0
-19.5377 -17.5876 -0.012577 0 200 0
-19.5415 -17.5907 -0.0131487 0 200 0
-19.5453 -17.5939 -0.0137204 0 200 0
-19.5491 -17.5971 -0.0142921 0 200 0
-19.553 -17.6003 -0.0148638 0 200 0
-19.5568 -17.6034 -0.0154355 0 200 0
-19.5606 -17.6066 -0.0160071 0 200 0
-19.5644 -17.6098 -0.0165788 0 200 0
-19.5682 -17.613 -0.0171505 0 200 0
-19.5721 -17.6161 -0.0177222 0 200 0
-19.5759 -17.6193 -0.0182939 0 200 0
-19.5797 -17.6225 -0.0188656 0 200 0
-19.5835 -17.6257 -0.0194372 0 200 0
-19.5873 -17.6288 -0.0200089 0 200 0
-19.5912 -17.632 -0.0205806 0 200 0
-19.595 -17.6352 -0.0211523 0 200 0
-19.5988 -17.6384 -0.021724 0 200 0
-19.6026 -17.6416 -0.0222957 0 200 0
-19.6064 -17.6447 -0.0228674 0 200 0
-19.6103 -17.6479 -0.023439 0 200 0
-19.6141 -17.6511 -0.0240107 0 200 0
-19.6179 -17.6542 -0.0245824 0 200 0
-19.6217 -17.6574 -0.0251541 0 200 0
-19.6255 -17.6606 -0.0257258 0 200 0
-19.6294 -17.6638 -0.0262975 0 200 0
-19.6332 -17.667 -0.0268691 0 200 0
-19.637 -17.6701 -0.0274408 0 200 0
-19.6408 -17.6733 -0.0280125 0 200 0
-19.6446 -17.6765 -0.0285842 0 200 0
-19.6485 -17.6797 -0.0291559 0 200 0
-19.6523 -17.6828 -0.0297276 0 200 0
-19.6561 -17.686 -0.0302992 0 200 0
-19.6599 -17.6892 -0.0308709 0 200 0
-19.6637 -17.6924 -0.0314426 0 200 0
-19.6676 -17.6955 -0.0320143 0 200 0
-19.6714 -17.6987 -0.032586 0 200 0
-19.6752 -17.7019 -0.0331577 0 200 0
-19.679 -17.7051 -0.0337293 0 200 0
-19.6828 -17.7082 -0.034301 0 200 0
-19.6867 -17.7114 -0.0348727 0 200 0
-19.6905 -17.7146 -0.0354444 0 200 0
-19.6943 -17.7178 -0.0360161 0 200 0
-19.6981 -17.7209 -0.0365878 0 200 0
-19.7019 -17.7241 -0.0371594 0 200 0
-19.7058 -17.7273 -0.0377311 0 200 0
-19.7096 -17.7305 -0.0383028 0 200 0
-19.7134 -17.7336 -0.0388745 0 200 0
-19.7172 -17.7368 -0.0394462 0 200 0
-19.721 -17.74 -0.0400179 0 200 0
-19.7249 -17.7432 -0.0405895 0 200 0
-19.7287 -17.7463 -0.0411612 0 200 0
-19.7325 -17.7495 -0.0417329 0 200 0
-19.7363 -17.7527 -0.0423046 0 200 0
-19.7401 -17.7559 -0.0428763 0 200 0
-19.744 -17.759 -0.043448 0 200 0
-19.7478 -17.7622 -0.0440197 0 200 0
-19.7516 -17.7654 -0.0445913 0 200 0
-19.7554 -17.7686 -0.045163 0 200 0
-19.7592 -17.7717 -0.0457347 0 200 0
-19.7631 -17.7749 -0.0463064 0 200 0
-19.7669 -17.7781 -0.0468781 0 200 0
-19.7707 -17.7813 -0.0474498 0 200 0
-19.7745 -17.7844 -0.0480214 0 200 0
-19.7783 -17.7876 -0.0485931 0 200 0
-19.7822 -17.7908 -0.0491648 0 200 0
-19.786 -17.794 -0.0497365 0 200 0
-19.7898 -17.7971 -0.0503082 0 200 0
-19.7936 -17.8003 -0.0508799 0 200 0
-19.7974 -17.8035 -0.0514515 0 200 0
-19.8013 -17.8067 -0.0520232 0 200 0
-19.8051 -17.8098 -0.0525949 0 200 0
-19.8089 -17.813 -0.0531666 0 200 0
-19.8127 -17.8162 -0.0537383 0 200 0
-19.8165 -17.8194 -0.05431 0 200 0
-19.8204 -17.8225 -0.0548816 0 200 0
-19.8242 -17.8257 -0.0554533 0 200 0
-19.828 -17.8289 -0.056025 0 200 0
-19.8318 -17.8321 -0.0565967 0 200 0
-20.3641 -18.0439 0 0 200 0
-20.368 -18.0468 -0.000790767 0 200 0
-20.372 -18.0498 -0.00158153 0 200 0
-20.376 -18.0527 -0.0023723 0 200 0
-20.38 -18.0556 -0.00316307 0 200 0
-20.3839 -18.0585 -0.00395383 0 200 0
-20.3879 -18.0615 -0.0047446 0 200 0
-20.3919 -18.0644 -0.00553537 0 200 0
-20.3959 -18.0673 -0.00632613 0 200 0
-20.3999 -18.0702 -0.0071169 0 200 0
-20.4038 -18.0731 -0.00790767 0 200 0
-20.4078 -18.0761 -0.00869843 0 200 0
-20.4118 -18.079 -0.0094892 0 200 0
-20.4158 -18.0819 -0.01028 0 200 0
-20.4198 -18.0848 -0.0110707 0 200 0
-20.4237 -18.0878 -0.0118615 0 200 0
-20.4277 -18.0907 -0.0126523 0 200 0
-20.4317 -18.0936 -0.013443 0 200 0
-20.4357 -18.0965 -0.0142338 0 200 0
-20.4396 -18.0995 -0.0150246 0 200 0
-20.4436 -18.1024 -0.0158153 0 200 0
-20.4476 -18.1053 -0.0166061 0 200 0
-20.4516 -18.1082 -0.0173969 0 200 0
-20.4556 -18.1112 -0.0181876 0 200 0
-20.4595 -18.1141 -0.0189784 0 200 0
-20.4635 -18.117 -0.0197692 0 200 0
-20.4675 -18.1199 -0.0205599 0 200 0
-20.4715 -18.1228 -0.0213507 0 200 0
-20.4754 -18.1258 -0.0221415 0 200 0
-20.4794 -18.1287 -0.0229322 0 200 0
-20.4834 -18.1316 -0.023723 0 200 0
-20.4874 -18.1345 -0.0245138 0 200 0
-20.4914 -18.1375 -0.0253045 0 200 0
-20.4953 -18.1404 -0.0260953 0 200 0
-20.4993 -18.1433 -0.0268861 0 200 0
-20.5033 -18.1462 -0.0276768 0 200 0
-20.5073 -18.1492 -0.0284676 0 200 0
-20.5113 -18.1521 -0.0292584 0 200 0
-20.5152 -18.155 -0.0300491 0 200 0
-20.5192 -18.1579 -0.0308399 0 200 0
-20.5232 -18.1609 -0.0316307 0 200 0
-20.5272 -18.1638 -0.0324214 0 200 0
-20.5311 -18.1667 -0.0332122 0 200 0
-20.5351 -18.1696 -0.034003 0 200 0
-20.5391 -18.1726 -0.0347937 0 200 0
-20.5431 -18.1755 -0.0355845 0 200 0
-20.5471 -18.1784 -0.0363753 0 200 0
-20.551 -18.1813 -0.037166 0 200 0
-20.555 -18.1842 -0.0379568 0 200 0
-20.559 -18.1872 -0.0387476 0 200 0
-20.563 -18.1901 -0.0395383 0 200 0
-20.5669 -18.193 -0.0403291 0 200 0
-20.5709 -18.1959 -0.0411199 0 200 0
-20.5749 -18.1989 -0.0419106 0 200 0
-20.5789 -18.2018 -0.0427014 0 200 0
-20.5829 -18.2047 -0.0434922 0 200 0
-20.5868 -18.2076 -0.0442829 0 200 0
-20.5908 -18.2106 -0.0450737 0 200 0
-20.5948 -18.2135 -0.0458645 0 200 0
-20.5988 -18.2164 -0.0466552 0 200 0
-20.6028 -18.2193 -0.047446 0 200 0
-20.6067 -18.2223 -0.0482368 0 200 0
-20.6107 -18.2252 -0.0490275 0 200 0
-20.6147 -18.2281 -0.0498183 0 200 0
-20.6187 -18.231 -0.0506091 0 200 0
-20.6226 -18.2339 -0.0513998 0 200 0
-20.6266 -18.2369 -0.0521906 0 200 0
-20.6306 -18.2398 -0.0529814 0 200 0
-20.6346 -18.2427 -0.0537721 0 200 0
-20.6386 -18.2456 -0.0545629 0 200 0
-20.6425 -18.2486 -0.0553537 0 200 0
-20.6465 -18.2515 -0.0561444 0 200 0
-20.6505 -18.2544 -0.0569352 0 200 0
-20.6545 -18.2573 -0.057726 0 200 0
-20.6584 -18.2603 -0.0585167 0 200 0
-20.6624 -18.2632 -0.0593075 0 200 0
-20.6664 -18.2661 -0.0600983 0 200 0
-20.6704 -18.269 -0.060889 0 200 0
-20.6744 -18.272 -0.0616798 0 200 0
-20.6783 -18.2749 -0.0624706 0 200 0
-20.6823 -18.2778 -0.0632613 0 200 0
-20.6863 -18.2807 -0.0640521 0 200 0
-20.6903 -18.2836 -0.0648429 0 200 0
-20.6943 -18.2866 -0.0656336 0 200 0
-20.6982 -18.2895 -0.0664244 0 200 0
-20.7022 -18.2924 -0.0672152 0 200 0
-20.7062 -18.2953 -0.0680059 0 200 0
-20.7102 -18.2983 -0.0687967 0 200 0
-20.7141 -18.3012 -0.0695875 0 200 0
-20.7181 -18.3041 -0.0703782 0 200 0
-20.7221 -18.307 -0.071169 0 200 0
-20.7261 -18.31 -0.0719598 0 200 0
-20.7301 -18.3129 -0.0727505 0 200 0
-20.734 -18.3158 -0.0735413 0 200 0
-20.738 -18.3187 -0.0743321 0 200 0
-20.742 -18.3217 -0.0751228 0 200 0
-20.746 -18.3246 -0.0759136 0 200 0
-20.7499 -18.3275 -0.0767044 0 200 0
-20.7539 -18.3304 -0.0774951 0 200 0
-20.7579 -18.3333 -0.0782859 0 200 0
-21.4129 -18.561 0 0 200 0
-21.4167 -18.5642 -0.00052126 0 200 0
-21.4204 -18.5675 -0.00104252 0 200 0
-21.4242 -18.5708 -0.00156378 0 200 0
-21.4279 -18.5741 -0.00208504 0 200 0
-21.4316 -18.5773 -0.0026063 0 200 0
-21.4354 -18.5806 -0.00312756 0 200 0
-21.4391 -18.5839 -0.00364882 0 200 0
-21.4429 -18.5872 -0.00417008 0 200 0
-21.4466 -18.5904 -0.00469134 0 200 0
-21.4504 -18.5937 -0.0052126 0 200 0
-21.4541 -18.597 -0.00573386 0 200 0
-21.4578 -18.6003 -0.00625512 0 200 0
-21.4616 -18.6035 -0.00677638 0 200 0
-21.4653 -18.6068 -0.00729764 0 200 0
-21.4691 -18.6101 -0.0078189 0 200 0
-21.4728 -18.6134 -0.00834016 0 200 0
-21.4765 -18.6166 -0.00886142 0 200 0
-21.4803 -18.6199 -0.00938268 0 200 0
-21.484 -18.6232 -0.00990394 0 200 0
-21.4878 -18.6265 -0.0104252 0 200 0
-21.4915 -18.6297 -0.0109465 0 200 0
-21.4953 -18.633 -0.0114677 0 200 0
-21.499 -18.6363 -0.011989 0 200 0
-21.5027 -18.6396 -0.0125102 0 200 0
-21.5065 -18.6428 -0.0130315 0 200 0
-21.5102 -18.6461 -0.0135528 0 200 0
-21.514 -18.6494 -0.014074 0 200 0
-21.5177 -18.6527 -0.0145953 0 200 0
-21.5214 -18.6559 -0.0151165 0 200 0
-21.5252 -18.6592 -0.0156378 0 200 0
-21.5289 -18.6625 -0.0161591 0 200 0
-21.5327 -18.6658 -0.0166803 0 200 0
-21.5364 -18.669 -0.0172016 0 200 0
-21.5402 -18.6723 -0.0177228 0 200 0
-21.5439 -18.6756 -0.0182441 0 200 0
-21.5476 -18.6789 -0.0187654 0 200 0
-21.5514 -18.6821 -0.0192866 0 200 0
-21.5551 -18.6854 -0.0198079 0 200 0
-21.5589 -18.6887 -0.0203291 0 200 0
-21.5626 -18.692 -0.0208504 0 200 0
-21.5663 -18.6953 -0.0213716 0 200 0
-21.5701 -18.6985 -0.0218929 0 200 0
-21.5738 -18.7018 -0.0224142 0 200 0
-21.5776 -18.7051 -0.0229354 0 200 0
-21.5813 -18.7084 -0.0234567 0 200 0
-21.5851 -18.7116 -0.0239779 0 200 0
-21.5888 -18.7149 -0.0244992 0 200 0
-21.5925 -18.7182 -0.0250205 0 200 0
-21.5963 -18.7215 -0.0255417 0 200 0
-21.6 -18.7247 -0.026063 0 200 0
-21.6038 -18.728 -0.0265842 0 200 0
-21.6075 -18.7313 -0.0271055 0 200 0
-21.6112 -18.7346 -0.0276268 0 200 0
-21.615 -18.7378 -0.028148 0 200 0
-21.6187 -18.7411 -0.0286693 0 200 0
-21.6225 -18.7444 -0.0291905 0 200 0
-21.6262 -18.7477 -0.0297118 0 200 0
-21.63 -18.7509 -0.0302331 0 200 0
-21.6337 -18.7542 -0.0307543 0 200 0
-21.6374 -18.7575 -0.0312756 0 200 0
-21.6412 -18.7608 -0.0317968 0 200 0
-21.6449 -18.764 -0.0323181 0 200 0
-21.6487 -18.7673 -0.0328394 0 200 0
-21.6524 -18.7706 -0.0333606 0 200 0
-21.6561 -18.7739 -0.0338819 0 200 0
-21.6599 -18.7771 -0.0344031 0 200 0
-21.6636 -18.7804 -0.0349244 0 200 0
-21.6674 -18.7837 -0.0354457 0 200 0
-21.6711 -18.787 -0.0359669 0 200 0
-21.6749 -18.7902 -0.0364882 0 200 0
-21.6786 -18.7935 -0.0370094 0 200 0
-21.6823 -18.7968 -0.0375307 0 200 0
-21.6861 -18.8001 -0.038052 0 200 0
-21.6898 -18.8033 -0.0385732 0 200 0
-21.6936 -18.8066 -0.0390945 0 200 0
-21.6973 -18.8099 -0.0396157 0 200 0
-21.701 -18.8132 -0.040137 0 200 0
-21.7048 -18.8164 -0.0406583 0 200 0
-21.7085 -18.8197 -0.0411795 0 200 0
-21.7123 -18.823 -0.0417008 0 200 0
-21.716 -18.8263 -0.042222 0 200 0
-21.7198 -18.8295 -0.0427433 0 200 0
-21.7235 -18.8328 -0.0432646 0 200 0
-21.7272 -18.8361 -0.0437858 0 200 0
-21.731 -18.8394 -0.0443071 0 200 0
-21.7347 -18.8426 -0.0448283 0 200 0
-21.7385 -18.8459 -0.0453496 0 200 0
-21.7422 -18.8492 -0.0458709 0 200 0
-21.7459 -18.8525 -0.0463921 0 200 0
-21.7497 -18.8557 -0.0469134 0 200 0
-21.7534 -18.859 -0.0474346 0 200 0
-21.7572 -18.8623 -0.0479559 0 200 0
-21.7609 -18.8656 -0.0484772 0 200 0
-21.7647 -18.8688 -0.0489984 0 200 0
-21.7684 -18.8721 -0.0495197 0 200 0
-21.7721 -18.8754 -0.0500409 0 200 0
-21.7759 -18.8787 -0.0505622 0 200 0
-21.7796 -18.8819 -0.0510835 0 200 0
-21.7834 -18.8852 -0.0516047 0 200 0
-22.546 -19.1525 0 0 200 0
-22.5498 -19.1556 -0.000484789 0 200 0
-22.5537 -19.1588 -0.000969578 0 200 0
-22.5576 -19.1619 -0.00145437 0 200 0
-22.5615 -19.165 -0.00193916 0 200 0
-22.5654 -19.1681 -0.00242394 0 200 0
-22.5693 -19.1712 -0.00290873 0 200 0
-22.5731 -19.1743 -0.00339352 0 200 0
-22.577 -19.1774 -0.00387831 0 200 0
-22.5809 -19.1805 -0.0043631 0 200 0
-22.5848 -19.1836 -0.00484789 0 200 0
-22.5887 -19.1868 -0.00533268 0 200 0
-22.5926 -19.1899 -0.00581747 0 200 0
-22.5965 -19.193 -0.00630226 0 200 0
-22.6003 -19.1961 -0.00678704 0 200 0
-22.6042 -19.1992 -0.00727183 0 200 0
-22.6081 -19.2023 -0.00775662 0 200 0
-22.612 -19.2054 -0.00824141 0 200 0
-22.6159 -19.2085 -0.0087262 0 200 0
-22.6198 -19.2117 -0.00921099 0 200 0
-22.6236 -19.2148 -0.00969578 0 200 0
-22.6275 -19.2179 -0.0101806 0 200 0
-22.6314 -19.221 -0.0106654 0 200 0
-22.6353 -19.2241 -0.0111501 0 200 0
-22.6392 -19.2272 -0.0116349 0 200 0
-22.6431 -19.2303 -0.0121197 0 200 0
-22.6469 -19.2334 -0.0126045 0 200 0
-22.6508 -19.2365 -0.0130893 0 200 0
-22.6547 -19.2397 -0.0135741 0 200 0
-22.6586 -19.2428 -0.0140589 0 200 0
-22.6625 -19.2459 -0.0145437 0 200 0
-22.6664 -19.249 -0.0150285 0 200 0
-22.6702 -19.2521 -0.0155132 0 200 0
-22.6741 -19.2552 -0.015998 0 200 0
-22.678 -19.2583 -0.0164828 0 200 0
-22.6819 -19.2614 -0.0169676 0 200 0
-22.6858 -19.2646 -0.0174524 0 200 0
-22.6897 -19.2677 -0.0179372 0 200 0
-22.6935 -19.2708 -0.018422 0 200 0
-22.6974 -19.2739 -0.0189068 0 200 0
-22.7013 -19.277 -0.0193916 0 200 0
-22.7052 -19.2801 -0.0198763 0 200 0
-22.7091 -19.2832 -0.0203611 0 200 0
-22.713 -19.2863 -0.0208459 0 200 0
-22.7168 -19.2894 -0.0213307 0 200 0
-22.7207 -19.2926 -0.0218155 0 200 0
-22.7246 -19.2957 -0.0223003 0 200 0
-22.7285 -19.2988 -0.0227851 0 200 0
-22.7324 -19.3019 -0.0232699 0 200 0
-22.7363 -19.305 -0.0237547 0 200 0
-22.7401 -19.3081 -0.0242394 0 200 0
-22.744 -19.3112 -0.0247242 0 200 0
-22.7479 -19.3143 -0.025209 0 200 0
-22.7518 -19.3175 -0.0256938 0 200 0
-22.7557 -19.3206 -0.0261786 0 200 0
-22.7596 -19.3237 -0.0266634 0 200 0
-22.7634 -19.3268 -0.0271482 0 200 0
-22.7673 -19.3299 -0.027633 0 200 0
-22.7712 -19.333 -0.0281178 0 200 0
-22.7751 -19.3361 -0.0286025 0 200 0
-22.779 -19.3392 -0.0290873 0 200 0
-22.7829 -19.3423 -0.0295721 0 200 0
-22.7867 -19.3455 -0.0300569 0 200 0
-22.7906 -19.3486 -0.0305417 0 200 0
-22.7945 -19.3517 -0.0310265 0 200 0
-22.7984 -19.3548 -0.0315113 0 200 0
-22.8023 -19.3579 -0.0319961 0 200 0
-22.8062 -19.361 -0.0324809 0 200 0
-22.81 -19.3641 -0.0329656 0 200 0
-22.8139 -19.3672 -0.0334504 0 200 0
-22.8178 -19.3704 -0.0339352 0 200 0
-22.8217 -19.3735 -0.03442 0 200 0
-22.8256 -19.3766 -0.0349048 0 200 0
-22.8295 -19.3797 -0.0353896 0 200 0
-22.8333 -19.3828 -0.0358744 0 200 0
-22.8372 -19.3859 -0.0363592 0 200 0
-22.8411 -19.389 -0.036844 0 200 0
-22.845 -19.3921 -0.0373287 0 200 0
-22.8489 -19.3952 -0.0378135 0 200 0
-22.8528 -19.3984 -0.0382983 0 200 0
-22.8566 -19.4015 -0.0387831 0 200 0
-22.8605 -19.4046 -0.0392679 0 200 0
-22.8644 -19.4077 -0.0397527 0 200 0
-22.8683 -19.4108 -0.0402375 0 200 0
-22.8722 -19.4139 -0.0407223 0 200 0
-22.8761 -19.417 -0.0412071 0 200 0
-22.8799 -19.4201 -0.0416918 0 200 0
-22.8838 -19.4233 -0.0421766 0 200 0
-22.8877 -19.4264 -0.0426614 0 200 0
-22.8916 -19.4295 -0.0431462 0 200 0
-22.8955 -19.4326 -0.043631 0 200 0
-22.8994 -19.4357 -0.0441158 0 200 0
-22.9032 -19.4388 -0.0446006 0 200 0
-22.9071 -19.4419 -0.0450854 0 200 0
-22.911 -19.445 -0.0455702 0 200 0
-22.9149 -19.4481 -0.0460549 0 200 0
-22.9188 -19.4513 -0.0465397 0 200 0
-22.9227 -19.4544 -0.0470245 0 200 0
-22.9266 -19.4575 -0.0475093 0 200 0
-22.9304 -19.4606 -0.0479941 0 200 0
-23.8131 -19.7901 0 0 200 0
-23.8169 -19.7932 -0.000682347 0 200 0
-23.8208 -19.7963 -0.00136469 0 200 0
-23.8246 -19.7994 -0.00204704 0 200 0
-23.8285 -19.8025 -0.00272939 0 200 0
-23.8323 -19.8056 -0.00341173 0 200 0
-23.8362 -19.8088 -0.00409408 0 200 0
-23.84 -19.8119 -0.00477643 0 200 0
-23.8439 -19.815 -0.00545877 0 200 0
-23.8477 -19.8181 -0.00614112 0 200 0
-23.8516 -19.8212 -0.00682347 0 200 0
-23.8554 -19.8243 -0.00750581 0 200 0
-23.8593 -19.8275 -0.00818816 0 200 0
-23.8631 -19.8306 -0.00887051 0 200 0
-23.867 -19.8337 -0.00955286 0 200 0
-23.8708 -19.8368 -0.0102352 0 200 0
-23.8747 -19.8399 -0.0109175 0 200 0
-23.8785 -19.843 -0.0115999 0 200 0
-23.8824 -19.8462 -0.0122822 0 200 0
-23.8862 -19.8493 -0.0129646 0 200 0
-23.8901 -19.8524 -0.0136469 0 200 0
-23.8939 -19.8555 -0.0143293 0 200 0
-23.8978 -19.8586 -0.0150116 0 200 0
-23.9016 -19.8618 -0.015694 0 200 0
-23.9055 -19.8649 -0.0163763 0 200 0
-23.9093 -19.868 -0.0170587 0 200 0
-23.9132 -19.8711 -0.017741 0 200 0
-23.917 -19.8742 -0.0184234 0 200 0
-23.9209 -19.8773 -0.0191057 0 200 0
-23.9247 -19.8805 -0.0197881 0 200 0
-23.9286 -19.8836 -0.0204704 0 200 0
-23.9324 -19.8867 -0.0211527 0 200 0
-23.9363 -19.8898 -0.0218351 0 200 0
-23.9401 -19.8929 -0.0225174 0 200 0
-23.944 -19.896 -0.0231998 0 200 0
-23.9478 -19.8992 -0.0238821 0 200 0
-23.9517 -19.9023 -0.0245645 0 200 0
-23.9555 -19.9054 -0.0252468 0 200 0
-23.9594 -19.9085 -0.0259292 0 200 0
-23.9632 -19.9116 -0.0266115 0 200 0
-23.9671 -19.9147 -0.0272939 0 200 0
-23.9709 -19.9179 -0.0279762 0 200 0
-23.9748 -19.921 -0.0286586 0 200 0
-23.9786 -19.9241 -0.0293409 0 200 0
-23.9825 -19.9272 -0.0300233 0 200 0
-23.9863 -19.9303 -0.0307056 0 200 0
-23.9902 -19.9334 -0.031388 0 200 0
-23.994 -19.9366 -0.0320703 0 200 0
-23.9979 -19.9397 -0.0327526 0 200 0
-24.0017 -19.9428 -0.033435 0 200 0
-24.0056 -19.9459 -0.0341173 0 200 0
-24.0094 -19.949 -0.0347997 0 200 0
-24.0133 -19.9521 -0.035482 0 200 0
-24.0171 -19.9553 -0.0361644 0 200 0
-24.021 -19.9584 -0.0368467 0 200 0
-24.0248 -19.9615 -0.0375291 0 200 0
-24.0287 -19.9646 -0.0382114 0 200 0
-24.0325 -19.9677 -0.0388938 0 200 0
-24.0364 -19.9709 -0.0395761 0 200 0
-24.0402 -19.974 -0.0402585 0 200 0
-24.0441 -19.9771 -0.0409408 0 200 0
-24.0479 -19.9802 -0.0416232 0 200 0
-24.0518 -19.9833 -0.0423055 0 200 0
-24.0556 -19.9864 -0.0429878 0 200 0
-24.0595 -19.9896 -0.0436702 0 200 0
-24.0633 -19.9927 -0.0443525 0 200 0
-24.0672 -19.9958 -0.0450349 0 200 0
-24.071 -19.9989 -0.0457172 0 200 0
-24.0749 -20.002 -0.0463996 0 200 0
-24.0787 -20.0051 -0.0470819 0 200 0
-24.0826 -20.0083 -0.0477643 0 200 0
-24.0864 -20.0114 -0.0484466 0 200 0
-24.0903 -20.0145 -0.049129 0 200 0
-24.0941 -20.0176 -0.0498113 0 200 0
-24.0979 -20.0207 -0.0504937 0 200 0
-24.1018 -20.0238 -0.051176 0 200 0
-24.1056 -20.027 -0.0518584 0 200 0
-24.1095 -20.0301 -0.0525407 0 200 0
-24.1133 -20.0332 -0.0532231 0 200 0
-24.1172 -20.0363 -0.0539054 0 200 0
-24.121 -20.0394 -0.0545877 0 200 0
-24.1249 -20.0425 -0.0552701 0 200 0
-24.1287 -20.0457 -0.0559524 0 200 0
-24.1326 -20.0488 -0.0566348 0 200 0
-24.1364 -20.0519 -0.0573171 0 200 0
-24.1403 -20.055 -0.0579995 0 200 0
-24.1441 -20.0581 -0.0586818 0 200 0
-24.148 -20.0612 -0.0593642 0 200 0
-24.1518 -20.0644 -0.0600465 0 200 0
-24.1557 -20.0675 -0.0607289 0 200 0
-24.1595 -20.0706 -0.0614112 0 200 0
-24.1634 -20.0737 -0.0620936 0 200 0
