ply
format ascii 1.0
element vertex 1302
property float x
property float y
property float z
property uchar red
property uchar green
property uchar blue
element face 0
property list uchar int vertex_indices
end_header
-41.051 -39.5913 0.605995 0 255 255
-41.0608 -39.5917 0.607649 0 255 255
-41.0707 -39.5921 0.609318 0 255 255
-41.0805 -39.5926 0.610971 0 255 255
-41.0903 -39.593 0.61261 0 255 255
-41.1001 -39.5935 0.614203 0 255 255
-41.11 -39.594 0.615731 0 255 255
-41.1198 -39.5946 0.617175 0 255 255
-41.1296 -39.5951 0.61851 0 255 255
-41.1395 -39.5957 0.619738 0 255 255
-41.1493 -39.5963 0.62084 0 255 255
-41.1592 -39.5969 0.62181 0 255 255
-41.169 -39.5975 0.622645 0 255 255
-41.1985 -39.5993 0.624737 0 255 255
-41.2084 -39.5999 0.625034 0 255 255
-41.2183 -39.6006 0.625214 0 255 255
-41.2281 -39.6012 0.625284 0 255 255
-41.2379 -39.6018 0.625252 0 255 255
-41.2478 -39.6025 0.625126 0 255 255
-41.2576 -39.6032 0.624911 0 255 255
-41.2674 -39.6038 0.624613 0 255 255
-41.2773 -39.6045 0.624234 0 255 255
-41.2872 -39.6052 0.623776 0 255 255
-41.2972 -39.6059 0.623239 0 255 255
-41.3072 -39.6066 0.622624 0 255 255
-41.3172 -39.6073 0.621927 0 255 255
-41.3272 -39.6081 0.621151 0 255 255
-41.3373 -39.6089 0.620286 0 255 255
-41.3475 -39.6097 0.619339 0 255 255
-41.3577 -39.6106 0.618312 0 255 255
-41.3679 -39.6115 0.617208 0 255 255
-41.3781 -39.6124 0.616038 0 255 255
-41.3884 -39.6134 0.614795 0 255 255
-41.3987 -39.6144 0.613492 0 255 255
-41.4091 -39.6155 0.612137 0 255 255
-41.4195 -39.6165 0.610751 0 255 255
-41.4299 -39.6176 0.609334 0 255 255
-41.4404 -39.6187 0.607913 0 255 255
-41.4509 -39.6198 0.606507 0 255 255
-41.4615 -39.6209 0.605134 0 255 255
-41.4721 -39.622 0.603811 0 255 255
-41.4828 -39.6231 0.60255 0 255 255
-41.4935 -39.6242 0.601367 0 255 255
-41.5043 -39.6253 0.600252 0 255 255
-41.5151 -39.6264 0.599214 0 255 255
-41.526 -39.6274 0.598256 0 255 255
-41.5369 -39.6285 0.597377 0 255 255
-41.5478 -39.6296 0.596586 0 255 255
-41.5588 -39.6307 0.595873 0 255 255
-41.5698 -39.6319 0.595246 0 255 255
-41.5808 -39.6331 0.594706 0 255 255
-41.592 -39.6344 0.594257 0 255 255
-41.6031 -39.6358 0.593898 0 255 255
-41.6143 -39.6373 0.593626 0 255 255
-41.6256 -39.6388 0.593437 0 255 255
-41.6369 -39.6403 0.593327 0 255 255
-41.6481 -39.6419 0.59329 0 255 255
-41.6596 -39.6435 0.59332 0 255 255
-41.671 -39.6452 0.593414 0 255 255
-41.6824 -39.6468 0.593571 0 255 255
-41.6937 -39.6485 0.593793 0 255 255
-41.7049 -39.6502 0.59409 0 255 255
-41.716 -39.6518 0.594467 0 255 255
-41.727 -39.6536 0.594926 0 255 255
-41.7378 -39.6553 0.59546 0 255 255
-41.7486 -39.657 0.596071 0 255 255
-41.7592 -39.6586 0.59675 0 255 255
-41.7696 -39.6603 0.597491 0 255 255
-41.78 -39.6619 0.598295 0 255 255
-41.7902 -39.6636 0.599157 0 255 255
-41.8004 -39.6652 0.600068 0 255 255
-41.8105 -39.6669 0.601038 0 255 255
-41.8205 -39.6687 0.60206 0 255 255
-41.8305 -39.6704 0.603127 0 255 255
-41.8405 -39.6722 0.604258 0 255 255
-41.8505 -39.6741 0.605435 0 255 255
-41.8605 -39.676 0.606663 0 255 255
-41.8703 -39.6779 0.607935 0 255 255
-41.8802 -39.6799 0.60927 0 255 255
-41.8901 -39.6819 0.610664 0 255 255
-41.9 -39.6839 0.61211 0 255 255
-41.9098 -39.6861 0.613617 0 255 255
-41.9197 -39.6882 0.615192 0 255 255
-41.9296 -39.6904 0.616821 0 255 255
-41.9395 -39.6926 0.618494 0 255 255
-41.9493 -39.6947 0.620187 0 255 255
-41.9592 -39.6969 0.621904 0 255 255
-41.969 -39.699 0.623618 0 255 255
-41.9789 -39.7011 0.625309 0 255 255
-41.9888 -39.7032 0.626961 0 255 255
-41.9986 -39.7053 0.628556 0 255 255
-42.0084 -39.7073 0.630068 0 255 255
-42.0183 -39.7092 0.631498 0 255 255
-42.0282 -39.7112 0.632829 0 255 255
-42.0381 -39.7131 0.634031 0 255 255
-42.048 -39.7149 0.635095 0 255 255
-42.0579 -39.7168 0.636033 0 255 255
-42.0678 -39.7186 0.636818 0 255 255
-42.0776 -39.7204 0.637452 0 255 255
-42.0875 -39.7221 0.637946 0 255 255
-42.0974 -39.7239 0.638301 0 255 255
-42.1071 -39.7257 0.638521 0 255 255
-42.117 -39.7276 0.638619 0 255 255
-42.1268 -39.7294 0.638598 0 255 255
-42.1366 -39.7313 0.638464 0 255 255
-42.1464 -39.7332 0.638226 0 255 255
-42.1562 -39.7352 0.637891 0 255 255
-42.166 -39.7371 0.637465 0 255 255
-42.1758 -39.7391 0.636955 0 255 255
-42.1856 -39.7411 0.63637 0 255 255
-42.1954 -39.743 0.635718 0 255 255
-42.2052 -39.745 0.635009 0 255 255
-42.2151 -39.7469 0.63425 0 255 255
-42.2249 -39.7488 0.633446 0 255 255
-42.2348 -39.7507 0.632602 0 255 255
-42.2448 -39.7525 0.631721 0 255 255
-42.2547 -39.7542 0.630806 0 255 255
-42.2647 -39.7559 0.629861 0 255 255
-42.2746 -39.7575 0.628898 0 255 255
-42.2846 -39.7591 0.627902 0 255 255
-42.2946 -39.7606 0.626876 0 255 255
-42.3047 -39.7621 0.625828 0 255 255
-42.3149 -39.7635 0.624764 0 255 255
-42.3249 -39.7648 0.623696 0 255 255
-42.3351 -39.7661 0.622624 0 255 255
-42.3453 -39.7674 0.621567 0 255 255
-42.3556 -39.7686 0.620542 0 255 255
-42.3659 -39.7698 0.619565 0 255 255
-42.3762 -39.771 0.618651 0 255 255
-42.3866 -39.7721 0.617816 0 255 255
-42.3971 -39.7733 0.617058 0 255 255
-42.4076 -39.7744 0.616385 0 255 255
-42.4182 -39.7756 0.615801 0 255 255
-42.4289 -39.7767 0.615306 0 255 255
-42.4395 -39.7778 0.614903 0 255 255
-42.4501 -39.779 0.614592 0 255 255
-42.4609 -39.7801 0.614372 0 255 255
-42.4718 -39.7812 0.614243 0 255 255
-42.4826 -39.7823 0.6142 0 255 255
-42.4934 -39.7834 0.614236 0 255 255
-42.5043 -39.7844 0.614343 0 255 255
-42.5152 -39.7853 0.614513 0 255 255
-42.526 -39.7863 0.614736 0 255 255
-42.5369 -39.7872 0.615001 0 255 255
-42.5478 -39.788 0.615293 0 255 255
-42.5587 -39.7889 0.615602 0 255 255
-42.5695 -39.7897 0.615918 0 255 255
-42.5804 -39.7905 0.616236 0 255 255
-42.5911 -39.7914 0.616556 0 255 255
-42.6017 -39.7922 0.616879 0 255 255
-42.6123 -39.7931 0.617213 0 255 255
-42.6228 -39.7941 0.617562 0 255 255
-42.6332 -39.795 0.617935 0 255 255
-42.6435 -39.796 0.618335 0 255 255
-42.6536 -39.7971 0.618769 0 255 255
-42.6637 -39.7981 0.619241 0 255 255
-42.6736 -39.7992 0.619752 0 255 255
-42.6836 -39.8003 0.620313 0 255 255
-42.6934 -39.8013 0.620926 0 255 255
-42.7032 -39.8024 0.621596 0 255 255
-42.7129 -39.8034 0.622332 0 255 255
-42.7226 -39.8045 0.623135 0 255 255
-42.7322 -39.8055 0.624025 0 255 255
-42.7419 -39.8066 0.625 0 255 255
-42.7515 -39.8076 0.626066 0 255 255
-42.7611 -39.8086 0.627222 0 255 255
-42.7706 -39.8096 0.628486 0 255 255
-42.7802 -39.8106 0.629856 0 255 255
-42.7898 -39.8116 0.631334 0 255 255
-42.7994 -39.8125 0.632914 0 255 255
-42.8089 -39.8135 0.634587 0 255 255
-42.8184 -39.8143 0.636331 0 255 255
-42.828 -39.8152 0.63815 0 255 255
-42.8375 -39.816 0.640014 0 255 255
-42.847 -39.8167 0.6419 0 255 255
-42.8566 -39.8175 0.643785 0 255 255
-42.8661 -39.8182 0.645633 0 255 255
-42.8756 -39.8189 0.647444 0 255 255
-42.8852 -39.8196 0.649182 0 255 255
-42.8948 -39.8203 0.650825 0 255 255
-42.9044 -39.821 0.652352 0 255 255
-42.9141 -39.8216 0.653747 0 255 255
-42.9237 -39.8222 0.65499 0 255 255
-42.9334 -39.8228 0.656086 0 255 255
-42.9431 -39.8234 0.657019 0 255 255
-42.9528 -39.8239 0.657785 0 255 255
-42.9625 -39.8245 0.658384 0 255 255
-42.9722 -39.825 0.658815 0 255 255
-42.9819 -39.8255 0.659088 0 255 255
-42.9916 -39.8259 0.659208 0 255 255
-43.0013 -39.8264 0.659181 0 255 255
-43.0111 -39.8269 0.659013 0 255 255
-43.0207 -39.8274 0.658717 0 255 255
-43.0305 -39.8279 0.658297 0 255 255
-43.0401 -39.8285 0.657768 0 255 255
-43.0499 -39.8291 0.657132 0 255 255
-43.0597 -39.8297 0.656396 0 255 255
-43.0695 -39.8304 0.655579 0 255 255
-43.0793 -39.8311 0.654675 0 255 255
-43.0891 -39.8319 0.653696 0 255 255
-43.0989 -39.8327 0.652649 0 255 255
-43.1088 -39.8336 0.65154 0 255 255
-43.1187 -39.8345 0.650377 0 255 255
-43.1286 -39.8356 0.649173 0 255 255
-43.1386 -39.8366 0.647921 0 255 255
-43.1486 -39.8378 0.646633 0 255 255
-43.1586 -39.839 0.645317 0 255 255
-43.1686 -39.8402 0.643983 0 255 255
-43.1787 -39.8414 0.642643 0 255 255
-43.1887 -39.8427 0.641318 0 255 255
-43.1988 -39.844 0.640005 0 255 255
-43.2089 -39.8452 0.638726 0 255 255
-43.2191 -39.8465 0.637491 0 255 255
-43.2292 -39.8477 0.636315 0 255 255
-43.2395 -39.849 0.635186 0 255 255
-43.2498 -39.8502 0.634116 0 255 255
-43.2603 -39.8514 0.6331 0 255 255
-43.2707 -39.8526 0.632157 0 255 255
-43.2811 -39.8538 0.631288 0 255 255
-43.2916 -39.855 0.630502 0 255 255
-43.3021 -39.8563 0.629814 0 255 255
-43.3126 -39.8577 0.629222 0 255 255
-43.3232 -39.8591 0.628734 0 255 255
-43.3338 -39.8606 0.628355 0 255 255
-43.3445 -39.8623 0.628086 0 255 255
-43.3552 -39.864 0.62792 0 255 255
-43.366 -39.8658 0.627855 0 255 255
-43.3769 -39.8677 0.627886 0 255 255
-43.3878 -39.8696 0.628006 0 255 255
-43.3987 -39.8716 0.628212 0 255 255
-43.4096 -39.8736 0.628504 0 255 255
-43.4206 -39.8757 0.628882 0 255 255
-43.4314 -39.8778 0.629356 0 255 255
-43.4422 -39.8799 0.629937 0 255 255
-43.4529 -39.8821 0.630626 0 255 255
-43.4634 -39.8843 0.631414 0 255 255
-43.4739 -39.8864 0.6323 0 255 255
-43.4841 -39.8886 0.633268 0 255 255
-43.4943 -39.8907 0.634301 0 255 255
-43.5042 -39.8928 0.635388 0 255 255
-43.5141 -39.8948 0.636517 0 255 255
-43.5238 -39.8968 0.637669 0 255 255
-43.5335 -39.8988 0.638849 0 255 255
-43.5432 -39.9008 0.640045 0 255 255
-43.5527 -39.9028 0.641255 0 255 255
-43.5622 -39.9048 0.642475 0 255 255
-43.5717 -39.9067 0.643722 0 255 255
-43.5812 -39.9087 0.644988 0 255 255
-43.5906 -39.9107 0.646274 0 255 255
-43.6001 -39.9127 0.647582 0 255 255
-43.6094 -39.9147 0.648907 0 255 255
-43.6188 -39.9168 0.650268 0 255 255
-43.6282 -39.9189 0.651665 0 255 255
-43.6375 -39.921 0.653102 0 255 255
-43.6468 -39.9231 0.65457 0 255 255
-43.6561 -39.9253 0.656085 0 255 255
-43.6654 -39.9276 0.657636 0 255 255
-43.6747 -39.9298 0.659211 0 255 255
-43.6839 -39.932 0.660787 0 255 255
-43.6931 -39.9342 0.662357 0 255 255
-43.7024 -39.9364 0.663913 0 255 255
-43.7116 -39.9387 0.665429 0 255 255
-43.7208 -39.9409 0.666884 0 255 255
-43.73 -39.9431 0.668263 0 255 255
-43.7392 -39.9453 0.66955 0 255 255
-43.7484 -39.9475 0.670731 0 255 255
-43.7576 -39.9497 0.671789 0 255 255
-43.7668 -39.9519 0.672728 0 255 255
-43.776 -39.954 0.67353 0 255 255
-43.7852 -39.9561 0.674188 0 255 255
-43.7943 -39.9583 0.674698 0 255 255
-43.8035 -39.9604 0.675056 0 255 255
-43.8127 -39.9625 0.675264 0 255 255
-43.8218 -39.9646 0.675331 0 255 255
-43.831 -39.9667 0.675262 0 255 255
-43.8402 -39.9688 0.675063 0 255 255
-43.8493 -39.9709 0.674747 0 255 255
-43.8585 -39.973 0.674321 0 255 255
-43.8677 -39.975 0.673795 0 255 255
-43.8769 -39.9771 0.673181 0 255 255
-43.8862 -39.9791 0.672489 0 255 255
-43.8954 -39.9811 0.671732 0 255 255
-43.9047 -39.9831 0.670917 0 255 255
-43.9139 -39.985 0.670049 0 255 255
-43.9232 -39.9869 0.669137 0 255 255
-43.9325 -39.9887 0.668175 0 255 255
-43.9418 -39.9905 0.667171 0 255 255
-43.9512 -39.9922 0.666128 0 255 255
-43.9605 -39.9938 0.665056 0 255 255
-43.9699 -39.9954 0.663946 0 255 255
-43.9794 -39.9969 0.66281 0 255 255
-43.9889 -39.9983 0.661651 0 255 255
-43.9984 -39.9997 0.660475 0 255 255
-44.008 -40.001 0.659289 0 255 255
-44.0176 -40.0022 0.658104 0 255 255
-44.0273 -40.0033 0.656912 0 255 255
-44.0369 -40.0044 0.655735 0 255 255
-44.0467 -40.0054 0.654568 0 255 255
-44.0566 -40.0065 0.653421 0 255 255
-44.0664 -40.0075 0.65232 0 255 255
-44.0763 -40.0085 0.651267 0 255 255
-44.0862 -40.0094 0.650278 0 255 255
-44.0963 -40.0104 0.649346 0 255 255
-44.1063 -40.0114 0.648481 0 255 255
-44.1164 -40.0124 0.647688 0 255 255
-44.1265 -40.0135 0.646958 0 255 255
-44.1367 -40.0145 0.646297 0 255 255
-44.147 -40.0155 0.645709 0 255 255
-44.1572 -40.0166 0.6452 0 255 255
-44.1675 -40.0176 0.644779 0 255 255
-44.1778 -40.0186 0.644448 0 255 255
-44.1882 -40.0195 0.644212 0 255 255
-44.1986 -40.0205 0.644076 0 255 255
-44.2091 -40.0214 0.644042 0 255 255
-44.2196 -40.0222 0.644105 0 255 255
-44.2301 -40.0231 0.644261 0 255 255
-44.2405 -40.024 0.644502 0 255 255
-44.2512 -40.0248 0.644821 0 255 255
-44.2617 -40.0257 0.6452 0 255 255
-44.2723 -40.0265 0.645641 0 255 255
-44.2828 -40.0274 0.646133 0 255 255
-44.2932 -40.0282 0.646677 0 255 255
-44.3036 -40.0291 0.647267 0 255 255
-44.3138 -40.03 0.647901 0 255 255
-44.3238 -40.0309 0.648575 0 255 255
-44.3337 -40.0318 0.64928 0 255 255
-44.3436 -40.0328 0.650019 0 255 255
-44.3533 -40.0337 0.65078 0 255 255
-44.3629 -40.0347 0.651554 0 255 255
-44.3725 -40.0356 0.652329 0 255 255
-44.382 -40.0365 0.653098 0 255 255
-44.3914 -40.0374 0.65385 0 255 255
-44.4008 -40.0382 0.654596 0 255 255
-44.4102 -40.039 0.655336 0 255 255
-44.4382 -40.0413 0.657567 0 255 255
-44.4474 -40.042 0.658363 0 255 255
-44.4566 -40.0427 0.659224 0 255 255
-44.4659 -40.0433 0.66018 0 255 255
-44.4751 -40.0438 0.661229 0 255 255
-44.4842 -40.0444 0.662379 0 255 255
-44.4934 -40.0448 0.663648 0 255 255
-44.5025 -40.0453 0.66503 0 255 255
-44.5116 -40.0456 0.666516 0 255 255
-44.5207 -40.0459 0.668092 0 255 255
-44.5297 -40.0462 0.669742 0 255 255
-44.5387 -40.0464 0.671434 0 255 255
-44.5477 -40.0466 0.673169 0 255 255
-44.5567 -40.0468 0.674916 0 255 255
-44.5657 -40.047 0.676651 0 255 255
-44.5747 -40.0472 0.678352 0 255 255
-44.5836 -40.0474 0.679988 0 255 255
-44.5925 -40.0476 0.681561 0 255 255
-44.6015 -40.0478 0.683042 0 255 255
-44.6105 -40.0481 0.684418 0 255 255
-44.6194 -40.0484 0.685671 0 255 255
-44.6284 -40.0487 0.686811 0 255 255
-44.6373 -40.049 0.687824 0 255 255
-44.6463 -40.0494 0.688709 0 255 255
-44.6552 -40.0499 0.689469 0 255 255
-44.6642 -40.0503 0.690108 0 255 255
-44.673 -40.0508 0.690627 0 255 255
-44.6819 -40.0513 0.691037 0 255 255
-44.6909 -40.0518 0.691337 0 255 255
-44.6998 -40.0523 0.691533 0 255 255
-44.7087 -40.0529 0.691631 0 255 255
-44.7177 -40.0535 0.691634 0 255 255
-44.7266 -40.0541 0.691546 0 255 255
-44.7355 -40.0547 0.691366 0 255 255
-44.7445 -40.0553 0.691095 0 255 255
-44.7535 -40.056 0.690735 0 255 255
-44.7625 -40.0566 0.690284 0 255 255
-44.7716 -40.0573 0.689746 0 255 255
-44.7806 -40.0579 0.689126 0 255 255
-44.7898 -40.0587 0.688418 0 255 255
-44.7989 -40.0594 0.687629 0 255 255
-44.8081 -40.0601 0.686767 0 255 255
-44.8174 -40.0609 0.685818 0 255 255
-44.8267 -40.0617 0.684808 0 255 255
-44.836 -40.0626 0.683723 0 255 255
-44.8454 -40.0635 0.682573 0 255 255
-44.8548 -40.0644 0.681372 0 255 255
-44.8643 -40.0654 0.680112 0 255 255
-44.8739 -40.0664 0.67881 0 255 255
-44.8835 -40.0674 0.677477 0 255 255
-44.8931 -40.0684 0.676131 0 255 255
-44.9027 -40.0694 0.674766 0 255 255
-44.9125 -40.0704 0.673399 0 255 255
-44.9223 -40.0714 0.67204 0 255 255
-44.932 -40.0723 0.670707 0 255 255
-44.9419 -40.0733 0.669393 0 255 255
-44.9517 -40.0742 0.668114 0 255 255
-44.9616 -40.0752 0.666879 0 255 255
-44.9716 -40.0761 0.665699 0 255 255
-44.9814 -40.077 0.66459 0 255 255
-44.9913 -40.078 0.663548 0 255 255
-45.0012 -40.079 0.662597 0 255 255
-45.0112 -40.0801 0.661741 0 255 255
-45.0212 -40.0813 0.660997 0 255 255
-45.0313 -40.0826 0.660364 0 255 255
-45.0415 -40.0839 0.659841 0 255 255
-45.0517 -40.0853 0.65942 0 255 255
-45.062 -40.0867 0.659096 0 255 255
-45.0723 -40.0881 0.658867 0 255 255
-45.0826 -40.0894 0.65873 0 255 255
-45.093 -40.0908 0.658683 0 255 255
-45.1033 -40.0921 0.658738 0 255 255
-45.1135 -40.0934 0.658909 0 255 255
-45.1236 -40.0946 0.659209 0 255 255
-45.1336 -40.0959 0.659641 0 255 255
-45.1435 -40.0971 0.660209 0 255 255
-45.1532 -40.0983 0.660907 0 255 255
-45.1628 -40.0995 0.661722 0 255 255
-45.1722 -40.1007 0.662642 0 255 255
-45.1815 -40.1018 0.663649 0 255 255
-45.1906 -40.1029 0.66472 0 255 255
-45.1997 -40.104 0.665848 0 255 255
-45.2086 -40.1051 0.667001 0 255 255
-45.2176 -40.1062 0.668185 0 255 255
-45.2265 -40.1073 0.669377 0 255 255
-45.2354 -40.1085 0.670567 0 255 255
-45.2441 -40.1096 0.671758 0 255 255
-45.2529 -40.1107 0.672968 0 255 255
-45.2617 -40.1118 0.674197 0 255 255
-45.2705 -40.113 0.675451 0 255 255
-45.2792 -40.1142 0.676736 0 255 255
-45.2879 -40.1153 0.678051 0 255 255
-45.2966 -40.1165 0.679419 0 255 255
-45.3053 -40.1176 0.680836 0 255 255
-45.3139 -40.1187 0.682301 0 255 255
-45.3226 -40.1199 0.683813 0 255 255
-45.3311 -40.121 0.685353 0 255 255
-45.3397 -40.1221 0.686925 0 255 255
-45.3483 -40.1231 0.688505 0 255 255
-45.3568 -40.1241 0.69008 0 255 255
-45.3653 -40.125 0.691634 0 255 255
-45.3738 -40.126 0.693146 0 255 255
-45.3822 -40.1268 0.694623 0 255 255
-45.3907 -40.1276 0.696045 0 255 255
-45.3992 -40.1284 0.697401 0 255 255
-45.4076 -40.129 0.69868 0 255 255
-45.416 -40.1297 0.699871 0 255 255
-45.4244 -40.1302 0.700965 0 255 255
-45.4327 -40.1307 0.701948 0 255 255
-45.4411 -40.1312 0.702829 0 255 255
-45.4494 -40.1316 0.703597 0 255 255
-45.4577 -40.1321 0.704251 0 255 255
-45.4659 -40.1325 0.704788 0 255 255
-45.4742 -40.1329 0.705216 0 255 255
-45.4824 -40.1333 0.705535 0 255 255
-45.4907 -40.1337 0.705749 0 255 255
-45.499 -40.1341 0.705866 0 255 255
-45.5072 -40.1346 0.705894 0 255 255
-45.5155 -40.135 0.705843 0 255 255
-45.5238 -40.1354 0.705721 0 255 255
-45.5321 -40.1359 0.705535 0 255 255
-45.5404 -40.1363 0.705294 0 255 255
-45.5487 -40.1367 0.705006 0 255 255
-45.5571 -40.1371 0.70467 0 255 255
-45.5655 -40.1375 0.704292 0 255 255
-45.5739 -40.1378 0.703876 0 255 255
-45.5823 -40.1381 0.70342 0 255 255
-45.5907 -40.1383 0.702923 0 255 255
-45.5991 -40.1385 0.702387 0 255 255
-45.6076 -40.1385 0.701802 0 255 255
-45.616 -40.1385 0.701169 0 255 255
-45.6245 -40.1385 0.700487 0 255 255
-45.633 -40.1383 0.699752 0 255 255
-45.6414 -40.1381 0.69897 0 255 255
-45.65 -40.1378 0.698135 0 255 255
-45.6585 -40.1374 0.697255 0 255 255
-45.6671 -40.1369 0.696342 0 255 255
-45.6757 -40.1364 0.695404 0 255 255
-45.6843 -40.1359 0.694458 0 255 255
-45.693 -40.1353 0.693508 0 255 255
-45.7018 -40.1347 0.692571 0 255 255
-45.7106 -40.1341 0.691661 0 255 255
-45.7193 -40.1335 0.690792 0 255 255
-45.7283 -40.1328 0.689958 0 255 255
-45.7372 -40.1322 0.689183 0 255 255
-45.7462 -40.1315 0.688467 0 255 255
-45.7552 -40.1309 0.687822 0 255 255
-45.7643 -40.1302 0.687247 0 255 255
-45.7734 -40.1295 0.686752 0 255 255
-45.7825 -40.1288 0.68634 0 255 255
-45.7917 -40.128 0.686011 0 255 255
-45.8008 -40.1272 0.685761 0 255 255
-45.81 -40.1263 0.685579 0 255 255
-45.8192 -40.1254 0.685459 0 255 255
-45.8283 -40.1244 0.685391 0 255 255
-45.8375 -40.1233 0.685366 0 255 255
-45.8466 -40.1222 0.685371 0 255 255
-45.8556 -40.1209 0.685398 0 255 255
-45.8647 -40.1196 0.685439 0 255 255
-45.8736 -40.1183 0.685488 0 255 255
-45.8825 -40.1169 0.685546 0 255 255
-45.8913 -40.1154 0.685612 0 255 255
-45.8999 -40.114 0.685693 0 255 255
-45.9085 -40.1126 0.685794 0 255 255
-45.917 -40.1112 0.685922 0 255 255
-45.9253 -40.1098 0.686085 0 255 255
-45.9335 -40.1085 0.686282 0 255 255
-45.9416 -40.1072 0.686516 0 255 255
-45.9495 -40.1059 0.686788 0 255 255
-45.9574 -40.1046 0.687104 0 255 255
-45.9651 -40.1033 0.687463 0 255 255
-45.9728 -40.1019 0.687866 0 255 255
-45.9805 -40.1006 0.688316 0 255 255
-45.9881 -40.0992 0.688812 0 255 255
-45.9956 -40.0978 0.689354 0 255 255
-46.0031 -40.0964 0.689942 0 255 255
-46.0105 -40.095 0.690577 0 255 255
-46.018 -40.0936 0.691276 0 255 255
-46.0254 -40.0921 0.692046 0 255 255
-46.0327 -40.0907 0.692898 0 255 255
-46.0401 -40.0891 0.693844 0 255 255
-46.0474 -40.0875 0.694884 0 255 255
-46.0547 -40.0859 0.696034 0 255 255
-46.0619 -40.0842 0.697275 0 255 255
-46.0691 -40.0824 0.698614 0 255 255
-46.0764 -40.0806 0.70004 0 255 255
-46.0835 -40.0787 0.701515 0 255 255
-46.0907 -40.0767 0.70303 0 255 255
-46.0978 -40.0748 0.704567 0 255 255
-46.1049 -40.0728 0.706108 0 255 255
-46.1119 -40.0708 0.707633 0 255 255
-46.119 -40.0688 0.709124 0 255 255
-46.126 -40.0667 0.710557 0 255 255
-46.133 -40.0647 0.711936 0 255 255
-46.1401 -40.0626 0.713241 0 255 255
-46.1471 -40.0606 0.714464 0 255 255
-46.1541 -40.0585 0.715602 0 255 255
-46.1611 -40.0564 0.716644 0 255 255
-46.1681 -40.0543 0.717601 0 255 255
-46.1751 -40.0522 0.718463 0 255 255
-46.182 -40.05 0.719228 0 255 255
-46.189 -40.0479 0.719895 0 255 255
-46.196 -40.0458 0.720462 0 255 255
-46.2029 -40.0436 0.720921 0 255 255
-46.2098 -40.0415 0.721279 0 255 255
-46.2167 -40.0394 0.721527 0 255 255
-46.2237 -40.0372 0.721664 0 255 255
-46.2306 -40.0351 0.721688 0 255 255
-46.2376 -40.033 0.721598 0 255 255
-46.2445 -40.0309 0.721395 0 255 255
-46.2515 -40.0288 0.72108 0 255 255
-46.2585 -40.0267 0.72066 0 255 255
-46.2656 -40.0246 0.72014 0 255 255
-46.2727 -40.0226 0.719524 0 255 255
-46.2797 -40.0205 0.718824 0 255 255
-46.2869 -40.0185 0.718039 0 255 255
-46.2941 -40.0165 0.717182 0 255 255
-46.3013 -40.0146 0.71626 0 255 255
-46.3085 -40.0126 0.715284 0 255 255
-46.3158 -40.0107 0.714268 0 255 255
-46.3231 -40.0088 0.713208 0 255 255
-46.3304 -40.0069 0.712118 0 255 255
-46.3377 -40.0049 0.711002 0 255 255
-46.3451 -40.003 0.709873 0 255 255
-46.3524 -40.001 0.708724 0 255 255
-46.3598 -39.9991 0.707566 0 255 255
-46.3672 -39.997 0.706399 0 255 255
-46.3746 -39.995 0.705228 0 255 255
-46.3821 -39.993 0.704057 0 255 255
-46.3895 -39.991 0.702888 0 255 255
-46.397 -39.9889 0.701735 0 255 255
-46.4044 -39.9868 0.700588 0 255 255
-46.412 -39.9848 0.699465 0 255 255
-46.4195 -39.9827 0.698376 0 255 255
-46.427 -39.9806 0.697337 0 255 255
-46.4345 -39.9785 0.696349 0 255 255
-46.4421 -39.9764 0.695432 0 255 255
-46.4497 -39.9743 0.694601 0 255 255
-46.4574 -39.9722 0.693867 0 255 255
-46.465 -39.9702 0.693237 0 255 255
-46.4727 -39.9681 0.692715 0 255 255
-46.4805 -39.9661 0.692288 0 255 255
-46.4883 -39.964 0.691955 0 255 255
-46.4962 -39.9619 0.691711 0 255 255
-46.504 -39.9598 0.691555 0 255 255
-46.5118 -39.9576 0.691484 0 255 255
-46.5195 -39.9555 0.691506 0 255 255
-46.5272 -39.9533 0.691626 0 255 255
-46.5348 -39.9511 0.691851 0 255 255
-46.5422 -39.9489 0.692185 0 255 255
-46.5495 -39.9467 0.692627 0 255 255
-46.5566 -39.9445 0.693164 0 255 255
-46.5636 -39.9424 0.693785 0 255 255
-46.5705 -39.9402 0.694465 0 255 255
-46.5773 -39.938 0.695179 0 255 255
-46.5839 -39.9358 0.695903 0 255 255
-46.5904 -39.9337 0.696618 0 255 255
-46.5969 -39.9315 0.697312 0 255 255
-46.6032 -39.9293 0.697978 0 255 255
-46.6094 -39.9272 0.698627 0 255 255
-46.6156 -39.925 0.699279 0 255 255
-46.6218 -39.9229 0.699945 0 255 255
-46.628 -39.9208 0.700638 0 255 255
-46.6341 -39.9187 0.701383 0 255 255
-46.6403 -39.9167 0.702192 0 255 255
-46.6464 -39.9147 0.703076 0 255 255
-46.6525 -39.9128 0.704049 0 255 255
-46.6587 -39.9108 0.705128 0 255 255
-46.6649 -39.9089 0.706304 0 255 255
-46.671 -39.9071 0.707564 0 255 255
-46.677 -39.9053 0.708905 0 255 255
-46.6831 -39.9035 0.710313 0 255 255
-46.6891 -39.9017 0.711769 0 255 255
-46.695 -39.9 0.713242 0 255 255
-46.7009 -39.8982 0.714731 0 255 255
-46.7068 -39.8964 0.716207 0 255 255
-46.7127 -39.8946 0.717656 0 255 255
-46.7184 -39.8927 0.719062 0 255 255
-46.7241 -39.8908 0.720406 0 255 255
-46.7298 -39.8889 0.721691 0 255 255
-46.7354 -39.8869 0.722894 0 255 255
-46.741 -39.8848 0.724005 0 255 255
-46.7464 -39.8827 0.725012 0 255 255
-46.7518 -39.8806 0.7259 0 255 255
-46.7572 -39.8784 0.726676 0 255 255
-46.7626 -39.8762 0.727326 0 255 255
-46.7679 -39.874 0.727846 0 255 255
-46.7732 -39.8718 0.728235 0 255 255
-46.7785 -39.8695 0.728497 0 255 255
-46.7838 -39.8673 0.728634 0 255 255
-46.7891 -39.8651 0.728652 0 255 255
-46.7944 -39.8628 0.728559 0 255 255
-46.7997 -39.8606 0.728359 0 255 255
-46.805 -39.8583 0.728062 0 255 255
-46.8104 -39.8561 0.72768 0 255 255
-46.8158 -39.8538 0.727219 0 255 255
-46.8212 -39.8515 0.726692 0 255 255
-46.8266 -39.8492 0.726107 0 255 255
-46.832 -39.8468 0.725475 0 255 255
-46.8374 -39.8445 0.724808 0 255 255
-46.8429 -39.8421 0.724104 0 255 255
-46.8483 -39.8397 0.723369 0 255 255
-46.8537 -39.8372 0.722607 0 255 255
-46.8591 -39.8347 0.721818 0 255 255
-46.8645 -39.8321 0.721004 0 255 255
-46.8699 -39.8295 0.720171 0 255 255
-46.8752 -39.8268 0.719311 0 255 255
-46.8805 -39.8241 0.718434 0 255 255
-46.8857 -39.8213 0.717545 0 255 255
-46.8909 -39.8185 0.716659 0 255 255
-46.8961 -39.8155 0.715777 0 255 255
-46.9013 -39.8126 0.714922 0 255 255
-46.9065 -39.8096 0.714098 0 255 255
-46.9116 -39.8065 0.713321 0 255 255
-46.9168 -39.8034 0.712604 0 255 255
-46.922 -39.8003 0.71196 0 255 255
-46.9273 -39.797 0.711389 0 255 255
-46.9325 -39.7938 0.710901 0 255 255
-46.9378 -39.7904 0.710495 0 255 255
-46.9432 -39.7871 0.710172 0 255 255
-46.9485 -39.7836 0.709927 0 255 255
-46.9539 -39.7802 0.709758 0 255 255
-46.9593 -39.7767 0.709666 0 255 255
-46.9648 -39.7731 0.709651 0 255 255
-46.9702 -39.7694 0.709718 0 255 255
-46.9757 -39.7657 0.709869 0 255 255
-46.9811 -39.7619 0.710103 0 255 255
-46.9864 -39.758 0.710415 0 255 255
-46.9918 -39.754 0.710799 0 255 255
-46.997 -39.75 0.711242 0 255 255
-47.0022 -39.7459 0.711739 0 255 255
-47.0074 -39.7418 0.712274 0 255 255
-47.0124 -39.7376 0.712831 0 255 255
-47.0174 -39.7333 0.713404 0 255 255
-47.0223 -39.7291 0.713977 0 255 255
-47.0271 -39.7248 0.714539 0 255 255
-47.0318 -39.7206 0.715082 0 255 255
-47.0365 -39.7165 0.715598 0 255 255
-47.041 -39.7123 0.71609 0 255 255
-47.0455 -39.7083 0.716557 0 255 255
-47.05 -39.7043 0.717001 0 255 255
-47.0544 -39.7004 0.717427 0 255 255
-47.0586 -39.6966 0.717837 0 255 255
-47.0629 -39.6928 0.718245 0 255 255
-47.067 -39.6892 0.718655 0 255 255
-47.0711 -39.6855 0.71909 0 255 255
-47.0751 -39.6818 0.719559 0 255 255
-47.079 -39.6782 0.720092 0 255 255
-47.0829 -39.6746 0.720696 0 255 255
-47.0867 -39.6711 0.721385 0 255 255
-47.0904 -39.6675 0.722161 0 255 255
-47.0941 -39.664 0.723024 0 255 255
-47.0977 -39.6606 0.723965 0 255 255
-47.1013 -39.6572 0.724989 0 255 255
-47.1048 -39.6538 0.72609 0 255 255
-47.1083 -39.6504 0.727266 0 255 255
-47.1117 -39.647 0.728513 0 255 255
-47.1151 -39.6437 0.72983 0 255 255
-47.1183 -39.6403 0.731203 0 255 255
-47.1216 -39.637 0.732643 0 255 255
-47.1248 -39.6336 0.734134 0 255 255
-47.128 -39.6302 0.735666 0 255 255
-47.1311 -39.6268 0.737226 0 255 255
-47.1343 -39.6235 0.738797 0 255 255
-47.1374 -39.6201 0.740362 0 255 255
-47.1405 -39.6167 0.741894 0 255 255
-47.1437 -39.6134 0.743386 0 255 255
-47.1469 -39.61 0.744832 0 255 255
-47.1501 -39.6066 0.746209 0 255 255
-47.1533 -39.6033 0.747502 0 255 255
-47.1565 -39.5999 0.748701 0 255 255
-47.1598 -39.5965 0.749798 0 255 255
-47.163 -39.5932 0.750789 0 255 255
-47.1662 -39.5898 0.751673 0 255 255
-47.1694 -39.5865 0.752447 0 255 255
-47.1726 -39.5832 0.75312 0 255 255
-47.1758 -39.5798 0.753691 0 255 255
-47.179 -39.5765 0.754162 0 255 255
-47.1821 -39.5732 0.754536 0 255 255
-47.1852 -39.5699 0.754813 0 255 255
-47.1883 -39.5665 0.754998 0 255 255
-47.1914 -39.5632 0.755091 0 255 255
-47.1944 -39.5599 0.755091 0 255 255
-47.1974 -39.5566 0.754997 0 255 255
-47.2004 -39.5533 0.754811 0 255 255
-47.2034 -39.55 0.754535 0 255 255
-47.2063 -39.5467 0.754173 0 255 255
-47.2093 -39.5433 0.753721 0 255 255
-47.2123 -39.54 0.753184 0 255 255
-47.2152 -39.5367 0.752563 0 255 255
-47.2183 -39.5334 0.751864 0 255 255
-47.2213 -39.5301 0.75109 0 255 255
-47.2244 -39.5268 0.750248 0 255 255
-47.2275 -39.5234 0.749342 0 255 255
-47.2307 -39.5201 0.748376 0 255 255
-47.234 -39.5168 0.747359 0 255 255
-47.2373 -39.5135 0.746303 0 255 255
-47.2407 -39.5102 0.745204 0 255 255
-47.2442 -39.5068 0.744078 0 255 255
-47.2477 -39.5035 0.742933 0 255 255
-47.2513 -39.5001 0.741786 0 255 255
-47.2549 -39.4968 0.740631 0 255 255
-47.2585 -39.4934 0.73948 0 255 255
-47.2622 -39.49 0.738344 0 255 255
-47.2659 -39.4865 0.73723 0 255 255
-47.2696 -39.4831 0.736154 0 255 255
-47.2734 -39.4796 0.735102 0 255 255
-47.2771 -39.4761 0.734104 0 255 255
-47.2808 -39.4726 0.733164 0 255 255
-47.2845 -39.469 0.73228 0 255 255
-47.2882 -39.4655 0.731452 0 255 255
-47.292 -39.4618 0.730692 0 255 255
-47.2957 -39.4582 0.730011 0 255 255
-47.2994 -39.4545 0.729402 0 255 255
-47.3032 -39.4508 0.728873 0 255 255
-47.307 -39.447 0.728427 0 255 255
-47.3108 -39.4432 0.728067 0 255 255
-47.3146 -39.4394 0.727788 0 255 255
-47.3185 -39.4355 0.727587 0 255 255
-47.3224 -39.4315 0.72746 0 255 255
-47.3264 -39.4275 0.727398 0 255 255
-47.3303 -39.4234 0.727396 0 255 255
-47.3343 -39.4192 0.727447 0 255 255
-47.3383 -39.4149 0.727546 0 255 255
-47.3422 -39.4106 0.72769 0 255 255
-47.3462 -39.4063 0.727877 0 255 255
-47.3501 -39.4021 0.728114 0 255 255
-47.3539 -39.3978 0.728417 0 255 255
-47.3578 -39.3936 0.728799 0 255 255
-47.3616 -39.3894 0.729267 0 255 255
-47.3653 -39.3854 0.729825 0 255 255
-47.369 -39.3815 0.73047 0 255 255
-47.3727 -39.3777 0.731195 0 255 255
-47.3762 -39.3741 0.731988 0 255 255
-47.3797 -39.3705 0.732843 0 255 255
-47.3831 -39.3671 0.733737 0 255 255
-47.3865 -39.3637 0.734651 0 255 255
-47.3898 -39.3605 0.735575 0 255 255
-47.3931 -39.3573 0.736494 0 255 255
-47.3964 -39.3542 0.737418 0 255 255
-47.3997 -39.3512 0.738341 0 255 255
-47.4031 -39.3482 0.739265 0 255 255
-47.4064 -39.3452 0.740197 0 255 255
-47.4098 -39.3423 0.741146 0 255 255
-47.4132 -39.3395 0.742113 0 255 255
-47.4166 -39.3366 0.743122 0 255 255
-47.42 -39.3338 0.744183 0 255 255
-47.4235 -39.3311 0.745287 0 255 255
-47.427 -39.3283 0.746465 0 255 255
-47.4306 -39.3257 0.747701 0 255 255
-47.4341 -39.323 0.748992 0 255 255
-47.4377 -39.3204 0.750349 0 255 255
-47.4412 -39.3178 0.751755 0 255 255
-47.4448 -39.3152 0.753196 0 255 255
-47.4482 -39.3127 0.75465 0 255 255
-47.4517 -39.3101 0.756118 0 255 255
-47.4551 -39.3076 0.757575 0 255 255
-47.4585 -39.305 0.759004 0 255 255
-47.4618 -39.3025 0.76039 0 255 255
-47.465 -39.2999 0.761712 0 255 255
-47.4682 -39.2974 0.762976 0 255 255
-47.4714 -39.2948 0.764163 0 255 255
-47.4744 -39.2923 0.765263 0 255 255
-47.4774 -39.2897 0.766265 0 255 255
-47.4803 -39.2871 0.767157 0 255 255
-47.4832 -39.2845 0.767943 0 255 255
-47.486 -39.2819 0.768617 0 255 255
-47.4888 -39.2793 0.769177 0 255 255
-47.4915 -39.2767 0.769623 0 255 255
-47.4942 -39.2741 0.769955 0 255 255
-47.4969 -39.2715 0.770183 0 255 255
-47.4996 -39.2689 0.770309 0 255 255
-47.5023 -39.2663 0.770341 0 255 255
-47.5049 -39.2637 0.770288 0 255 255
-47.5076 -39.2611 0.77016 0 255 255
-47.5102 -39.2585 0.769965 0 255 255
-47.5128 -39.2559 0.76971 0 255 255
-47.5155 -39.2532 0.769403 0 255 255
-47.5181 -39.2506 0.769048 0 255 255
-47.5207 -39.2479 0.768651 0 255 255
-47.5233 -39.2452 0.768212 0 255 255
-47.5259 -39.2425 0.767734 0 255 255
-47.5284 -39.2397 0.767213 0 255 255
-47.531 -39.237 0.766652 0 255 255
-47.5334 -39.2342 0.766051 0 255 255
-47.5359 -39.2314 0.765414 0 255 255
-47.5382 -39.2285 0.764732 0 255 255
-47.5405 -39.2256 0.764022 0 255 255
-47.5428 -39.2227 0.763274 0 255 255
-47.545 -39.2197 0.762498 0 255 255
-47.5471 -39.2167 0.761685 0 255 255
-47.5492 -39.2137 0.760854 0 255 255
-47.5512 -39.2106 0.760009 0 255 255
-47.5531 -39.2075 0.759159 0 255 255
-47.5551 -39.2043 0.758314 0 255 255
-47.557 -39.2012 0.757487 0 255 255
-47.5589 -39.198 0.756695 0 255 255
-47.5608 -39.1947 0.755938 0 255 255
-47.5627 -39.1914 0.755229 0 255 255
-47.5646 -39.1881 0.754575 0 255 255
-47.5665 -39.1847 0.75398 0 255 255
-47.5684 -39.1812 0.753443 0 255 255
-47.5703 -39.1778 0.752969 0 255 255
-47.5723 -39.1742 0.75255 0 255 255
-47.5742 -39.1707 0.752191 0 255 255
-47.5761 -39.1671 0.751894 0 255 255
-47.578 -39.1635 0.751665 0 255 255
-47.5799 -39.1598 0.751508 0 255 255
-47.5817 -39.1561 0.751428 0 255 255
-47.5835 -39.1524 0.751423 0 255 255
-47.5853 -39.1486 0.751494 0 255 255
-47.587 -39.1448 0.751638 0 255 255
-47.5887 -39.1409 0.751848 0 255 255
-47.5903 -39.1371 0.752119 0 255 255
-47.5919 -39.1332 0.752446 0 255 255
-47.5935 -39.1292 0.752818 0 255 255
-47.595 -39.1253 0.753225 0 255 255
-47.5965 -39.1213 0.753663 0 255 255
-47.598 -39.1174 0.754124 0 255 255
-47.5994 -39.1136 0.754614 0 255 255
-47.6008 -39.1098 0.755129 0 255 255
-47.6021 -39.106 0.755668 0 255 255
-47.6035 -39.1024 0.756228 0 255 255
-47.6048 -39.0988 0.756806 0 255 255
-47.6061 -39.0954 0.757396 0 255 255
-47.6074 -39.092 0.758005 0 255 255
-47.6087 -39.0888 0.758627 0 255 255
-47.6099 -39.0856 0.759261 0 255 255
-47.6111 -39.0825 0.759907 0 255 255
-47.6123 -39.0795 0.760568 0 255 255
-47.6134 -39.0766 0.761247 0 255 255
-47.6144 -39.0737 0.761947 0 255 255
-47.6154 -39.0709 0.762668 0 255 255
-47.6164 -39.0681 0.763427 0 255 255
-47.6173 -39.0654 0.764217 0 255 255
-47.6182 -39.0627 0.76505 0 255 255
-47.6191 -39.06 0.765922 0 255 255
-47.62 -39.0574 0.766832 0 255 255
-47.6208 -39.0548 0.767781 0 255 255
-47.6216 -39.0522 0.768767 0 255 255
-47.6223 -39.0497 0.769806 0 255 255
-47.623 -39.0472 0.770899 0 255 255
-47.6237 -39.0447 0.772045 0 255 255
-47.6243 -39.0422 0.773245 0 255 255
-47.6248 -39.0397 0.774498 0 255 255
-47.6254 -39.0372 0.775791 0 255 255
-47.6259 -39.0348 0.777129 0 255 255
-47.6263 -39.0323 0.778496 0 255 255
-47.6268 -39.0299 0.77987 0 255 255
-47.6272 -39.0275 0.781253 0 255 255
-47.6276 -39.025 0.782631 0 255 255
-47.628 -39.0226 0.783962 0 255 255
-47.6284 -39.0202 0.785251 0 255 255
-47.6289 -39.0178 0.786493 0 255 255
-47.6293 -39.0155 0.787665 0 255 255
-47.6298 -39.0131 0.788759 0 255 255
-47.6302 -39.0108 0.78976 0 255 255
-47.6307 -39.0084 0.790678 0 255 255
-47.6312 -39.0061 0.791504 0 255 255
-47.6317 -39.0038 0.792237 0 255 255
-47.6322 -39.0015 0.792875 0 255 255
-47.6327 -38.9992 0.793425 0 255 255
-47.6332 -38.997 0.793886 0 255 255
-47.6337 -38.9947 0.79426 0 255 255
-47.6342 -38.9925 0.794548 0 255 255
-47.6348 -38.9902 0.794748 0 255 255
-47.6353 -38.988 0.794859 0 255 255
-47.6358 -38.9858 0.794881 0 255 255
-47.6364 -38.9835 0.794816 0 255 255
-47.6369 -38.9813 0.794661 0 255 255
-47.6375 -38.979 0.794415 0 255 255
-47.638 -38.9768 0.794077 0 255 255
-47.6386 -38.9746 0.793649 0 255 255
-47.6392 -38.9723 0.793127 0 255 255
-47.6399 -38.97 0.792511 0 255 255
-47.6405 -38.9677 0.791807 0 255 255
-47.6412 -38.9654 0.791023 0 255 255
-47.6419 -38.9631 0.790155 0 255 255
-47.6427 -38.9607 0.789215 0 255 255
-47.6435 -38.9584 0.788211 0 255 255
-47.6443 -38.956 0.787152 0 255 255
-47.6452 -38.9535 0.786045 0 255 255
-47.6461 -38.9511 0.784906 0 255 255
-47.647 -38.9486 0.783729 0 255 255
-47.6479 -38.9462 0.782533 0 255 255
-47.6488 -38.9437 0.781325 0 255 255
-47.6497 -38.9412 0.780116 0 255 255
-47.6507 -38.9387 0.778925 0 255 255
-47.6516 -38.9361 0.777746 0 255 255
-47.6525 -38.9336 0.776597 0 255 255
-47.6535 -38.9311 0.775486 0 255 255
-47.6545 -38.9285 0.774425 0 255 255
-47.6555 -38.9259 0.773421 0 255 255
-47.6565 -38.9234 0.772489 0 255 255
-47.6575 -38.9208 0.771622 0 255 255
-47.6586 -38.9182 0.770832 0 255 255
-47.6596 -38.9156 0.770123 0 255 255
-47.6606 -38.9129 0.769499 0 255 255
-47.6617 -38.9102 0.768968 0 255 255
-47.6628 -38.9075 0.768522 0 255 255
-47.6638 -38.9048 0.768165 0 255 255
-47.665 -38.902 0.767892 0 255 255
-47.6661 -38.8991 0.767701 0 255 255
-47.6672 -38.8962 0.767585 0 255 255
-47.6683 -38.8933 0.767537 0 255 255
-47.6695 -38.8902 0.767551 0 255 255
-47.6707 -38.8871 0.767621 0 255 255
-47.6718 -38.8839 0.76774 0 255 255
-47.6729 -38.8807 0.767901 0 255 255
-47.6741 -38.8774 0.768099 0 255 255
-47.6752 -38.874 0.768329 0 255 255
-47.6764 -38.8707 0.768593 0 255 255
-47.6776 -38.8674 0.768895 0 255 255
-47.6788 -38.8641 0.769243 0 255 255
-47.68 -38.8609 0.769649 0 255 255
-47.6812 -38.8578 0.770116 0 255 255
-47.6824 -38.8548 0.77065 0 255 255
-47.6835 -38.8519 0.771243 0 255 255
-47.6847 -38.8492 0.771886 0 255 255
-47.6858 -38.8465 0.772571 0 255 255
-47.6869 -38.844 0.773279 0 255 255
-47.6879 -38.8416 0.774 0 255 255
-47.6889 -38.8393 0.774728 0 255 255
-47.69 -38.8371 0.775451 0 255 255
-47.6911 -38.8349 0.776166 0 255 255
-47.6922 -38.8328 0.776874 0 255 255
-47.6933 -38.8307 0.777582 0 255 255
-47.6944 -38.8287 0.778292 0 255 255
-47.6956 -38.8267 0.779015 0 255 255
-47.6968 -38.8247 0.779768 0 255 255
-47.6981 -38.8227 0.780545 0 255 255
-47.6993 -38.8208 0.781362 0 255 255
-47.7007 -38.8188 0.782227 0 255 255
-47.7021 -38.817 0.78315 0 255 255
-47.7035 -38.8151 0.78414 0 255 255
-47.7049 -38.8133 0.785202 0 255 255
-47.7064 -38.8115 0.78633 0 255 255
-47.7079 -38.8097 0.787534 0 255 255
-47.7094 -38.8079 0.7888 0 255 255
-47.7109 -38.8062 0.790113 0 255 255
-47.7123 -38.8045 0.79146 0 255 255
-47.7137 -38.8028 0.792813 0 255 255
-47.7151 -38.8012 0.794172 0 255 255
-47.7164 -38.7995 0.795512 0 255 255
-47.7177 -38.7979 0.796815 0 255 255
-47.7189 -38.7963 0.798064 0 255 255
-47.7201 -38.7947 0.799241 0 255 255
-47.7211 -38.7932 0.800325 0 255 255
-47.7222 -38.7916 0.801312 0 255 255
-47.7232 -38.7901 0.802197 0 255 255
-47.7242 -38.7885 0.802969 0 255 255
-47.7252 -38.787 0.803624 0 255 255
-47.7261 -38.7855 0.804156 0 255 255
-47.7271 -38.7839 0.804577 0 255 255
-47.7281 -38.7824 0.804879 0 255 255
-47.7292 -38.7809 0.80507 0 255 255
-47.7302 -38.7793 0.805153 0 255 255
-47.7313 -38.7778 0.805133 0 255 255
-47.7324 -38.7762 0.805019 0 255 255
-47.7336 -38.7747 0.804814 0 255 255
-47.7348 -38.7731 0.804525 0 255 255
-47.736 -38.7715 0.804159 0 255 255
-47.7372 -38.7699 0.803723 0 255 255
-47.7383 -38.7683 0.803226 0 255 255
-47.7395 -38.7666 0.802668 0 255 255
-47.7407 -38.765 0.802056 0 255 255
-47.7418 -38.7633 0.801397 0 255 255
-47.7429 -38.7617 0.800696 0 255 255
-47.7439 -38.76 0.799956 0 255 255
-47.7449 -38.7583 0.799187 0 255 255
-47.7458 -38.7566 0.798384 0 255 255
-47.7467 -38.7549 0.797554 0 255 255
-47.7475 -38.7532 0.796698 0 255 255
-47.7482 -38.7514 0.79582 0 255 255
-47.7489 -38.7497 0.794926 0 255 255
-47.7495 -38.7479 0.794011 0 255 255
-47.75 -38.7461 0.793085 0 255 255
-47.7505 -38.7443 0.792154 0 255 255
-47.751 -38.7425 0.791225 0 255 255
-47.7514 -38.7406 0.790304 0 255 255
-47.7518 -38.7387 0.789404 0 255 255
-47.7522 -38.7368 0.788518 0 255 255
-47.7525 -38.7349 0.787655 0 255 255
-47.7529 -38.7329 0.786817 0 255 255
-47.7533 -38.7308 0.786012 0 255 255
-47.7537 -38.7288 0.785232 0 255 255
-47.7542 -38.7267 0.784487 0 255 255
-47.7546 -38.7245 0.783786 0 255 255
-47.7551 -38.7224 0.783139 0 255 255
-47.7555 -38.7201 0.782559 0 255 255
-47.7559 -38.7179 0.782059 0 255 255
-47.7563 -38.7156 0.781651 0 255 255
-47.7567 -38.7133 0.781334 0 255 255
-47.757 -38.7109 0.781113 0 255 255
-47.7573 -38.7086 0.780986 0 255 255
-47.7575 -38.7062 0.780949 0 255 255
-47.7577 -38.7037 0.780994 0 255 255
-47.7579 -38.7013 0.781111 0 255 255
-47.758 -38.6988 0.781292 0 255 255
-47.7581 -38.6963 0.781526 0 255 255
-47.7581 -38.6938 0.781808 0 255 255
-47.7582 -38.6913 0.782137 0 255 255
-47.7582 -38.6888 0.782515 0 255 255
-47.7582 -38.6864 0.782942 0 255 255
-47.7582 -38.684 0.783419 0 255 255
-47.7582 -38.6818 0.78394 0 255 255
-47.7582 -38.6796 0.784506 0 255 255
-47.7582 -38.6775 0.785106 0 255 255
-47.7582 -38.6755 0.785731 0 255 255
-47.7582 -38.6737 0.786366 0 255 255
-47.7582 -38.672 0.786996 0 255 255
-47.7583 -38.6704 0.787619 0 255 255
-47.7583 -38.6688 0.788218 0 255 255
-47.7584 -38.6674 0.7888 0 255 255
-47.7584 -38.666 0.78936 0 255 255
-47.7585 -38.6647 0.789904 0 255 255
-47.7586 -38.6634 0.790438 0 255 255
-47.7588 -38.6622 0.790984 0 255 255
-47.7589 -38.661 0.791559 0 255 255
-47.7591 -38.6598 0.792167 0 255 255
-47.7593 -38.6587 0.792833 0 255 255
-47.7595 -38.6576 0.793565 0 255 255
-47.7597 -38.6566 0.794372 0 255 255
-47.7599 -38.6556 0.795256 0 255 255
-47.7601 -38.6547 0.796231 0 255 255
-47.7603 -38.6537 0.797291 0 255 255
-47.7605 -38.6528 0.798435 0 255 255
-47.7607 -38.652 0.799647 0 255 255
-47.7609 -38.6512 0.800935 0 255 255
-47.7611 -38.6504 0.802284 0 255 255
-47.7612 -38.6497 0.803681 0 255 255
-47.7613 -38.6489 0.805105 0 255 255
-47.7614 -38.6483 0.806557 0 255 255
-47.7614 -38.6476 0.808013 0 255 255
-47.7614 -38.6469 0.809455 0 255 255
-47.7614 -38.6463 0.810864 0 255 255
-47.7614 -38.6456 0.812224 0 255 255
-47.7614 -38.645 0.813511 0 255 255
-47.7614 -38.6444 0.814727 0 255 255
-47.7614 -38.6437 0.815853 0 255 255
-47.7613 -38.6431 0.816882 0 255 255
-47.7613 -38.6424 0.817805 0 255 255
-47.7613 -38.6418 0.818614 0 255 255
-47.7612 -38.6411 0.819317 0 255 255
-47.7612 -38.6405 0.81991 0 255 255
-47.7612 -38.6398 0.820394 0 255 255
-47.7612 -38.6392 0.82077 0 255 255
-47.7612 -38.6385 0.82104 0 255 255
-47.7613 -38.6378 0.821211 0 255 255
-47.7613 -38.6371 0.821285 0 255 255
-47.7614 -38.6364 0.821265 0 255 255
-47.7616 -38.6357 0.821157 0 255 255
-47.7617 -38.6349 0.820962 0 255 255
-47.7619 -38.6342 0.820686 0 255 255
-47.7621 -38.6334 0.820327 0 255 255
-47.7624 -38.6327 0.819888 0 255 255
-47.7626 -38.6319 0.819374 0 255 255
-47.7629 -38.6311 0.818788 0 255 255
-47.7633 -38.6302 0.818138 0 255 255
-47.7637 -38.6294 0.817419 0 255 255
-47.7641 -38.6285 0.816639 0 255 255
-47.7645 -38.6276 0.815799 0 255 255
-47.765 -38.6266 0.814901 0 255 255
-47.7655 -38.6257 0.813947 0 255 255
-47.7661 -38.6247 0.812944 0 255 255
-47.7667 -38.6236 0.81188 0 255 255
-47.7674 -38.6225 0.810762 0 255 255
-47.7682 -38.6214 0.809595 0 255 255
-47.7689 -38.6202 0.808385 0 255 255
-47.7698 -38.619 0.807146 0 255 255
-47.7706 -38.6177 0.805881 0 255 255
-47.7715 -38.6164 0.804584 0 255 255
-47.7724 -38.615 0.803279 0 255 255
-47.7733 -38.6136 0.801984 0 255 255
-47.7743 -38.6122 0.800701 0 255 255
-47.7752 -38.6107 0.799436 0 255 255
-47.7761 -38.6091 0.798206 0 255 255
-47.777 -38.6076 0.797003 0 255 255
-47.7778 -38.606 0.795843 0 255 255
-47.7787 -38.6044 0.794734 0 255 255
-47.7796 -38.6028 0.793691 0 255 255
-47.7804 -38.6011 0.792707 0 255 255
-47.7813 -38.5995 0.79179 0 255 255
-47.7823 -38.5978 0.790948 0 255 255
-47.7832 -38.5961 0.790189 0 255 255
-47.7843 -38.5944 0.789527 0 255 255
-47.7854 -38.5927 0.788957 0 255 255
-47.7865 -38.5908 0.788488 0 255 255
-47.7878 -38.589 0.788118 0 255 255
-47.789 -38.587 0.787846 0 255 255
-47.7903 -38.585 0.787675 0 255 255
-47.7915 -38.583 0.787607 0 255 255
-47.7928 -38.5809 0.78764 0 255 255
-47.794 -38.5788 0.787779 0 255 255
-47.7953 -38.5767 0.788029 0 255 255
-47.7965 -38.5746 0.788395 0 255 255
-47.7978 -38.5726 0.788879 0 255 255
-47.7991 -38.5707 0.789487 0 255 255
-47.8005 -38.5689 0.790213 0 255 255
-47.8019 -38.5672 0.791049 0 255 255
-47.8034 -38.5657 0.791979 0 255 255
-47.8049 -38.5643 0.793 0 255 255
-47.8064 -38.563 0.794101 0 255 255
-47.8079 -38.5618 0.795249 0 255 255
-47.8095 -38.5608 0.796428 0 255 255
-47.8111 -38.5598 0.797617 0 255 255
-47.8127 -38.5588 0.798795 0 255 255
-47.8143 -38.5579 0.799937 0 255 255
-47.8159 -38.5571 0.801046 0 255 255
-47.8176 -38.5563 0.80211 0 255 255
-47.8192 -38.5555 0.803124 0 255 255
-47.8208 -38.5547 0.804113 0 255 255
-47.8224 -38.554 0.805072 0 255 255
-47.8241 -38.5532 0.806021 0 255 255
-47.8257 -38.5525 0.806979 0 255 255
-47.8273 -38.5519 0.807952 0 255 255
-47.8289 -38.5512 0.808964 0 255 255
-47.8305 -38.5505 0.810019 0 255 255
-47.8322 -38.5499 0.811115 0 255 255
-47.8338 -38.5493 0.812271 0 255 255
-47.8355 -38.5487 0.813483 0 255 255
-47.8371 -38.5481 0.81475 0 255 255
-47.8388 -38.5476 0.816065 0 255 255
-47.8404 -38.5471 0.817413 0 255 255
-47.8421 -38.5465 0.818796 0 255 255
-47.8437 -38.5461 0.820194 0 255 255
-47.8454 -38.5456 0.821589 0 255 255
-47.847 -38.5451 0.822966 0 255 255
-47.8486 -38.5447 0.82431 0 255 255
-47.8502 -38.5443 0.825598 0 255 255
-47.8517 -38.5439 0.826832 0 255 255
-47.8533 -38.5435 0.827984 0 255 255
-47.8549 -38.5431 0.829057 0 255 255
-47.8564 -38.5427 0.830034 0 255 255
-47.858 -38.5424 0.8309 0 255 255
-47.8595 -38.542 0.831662 0 255 255
-47.861 -38.5417 0.832311 0 255 255
-47.8625 -38.5414 0.832845 0 255 255
-47.864 -38.5411 0.833264 0 255 255
-47.8655 -38.5408 0.833567 0 255 255
-47.867 -38.5405 0.833763 0 255 255
-47.8685 -38.5403 0.833855 0 255 255
-47.87 -38.54 0.833851 0 255 255
-47.8715 -38.5398 0.833757 0 255 255
-47.8729 -38.5395 0.833583 0 255 255
-47.8743 -38.5393 0.833336 0 255 255
-47.8757 -38.539 0.833024 0 255 255
-47.8771 -38.5388 0.832651 0 255 255
-47.8784 -38.5385 0.832222 0 255 255
-47.8797 -38.5383 0.831741 0 255 255
-47.881 -38.538 0.831201 0 255 255
-47.8822 -38.5377 0.830611 0 255 255
-47.8833 -38.5374 0.829974 0 255 255
-47.8845 -38.5371 0.829279 0 255 255
-47.8855 -38.5368 0.828537 0 255 255
-47.8866 -38.5365 0.827744 0 255 255
-47.8875 -38.5362 0.826908 0 255 255
-47.8884 -38.5359 0.826016 0 255 255
-47.8893 -38.5355 0.825077 0 255 255
-47.89 -38.5351 0.824092 0 255 255
-47.8908 -38.5347 0.823072 0 255 255
-47.8914 -38.5343 0.822008 0 255 255
-47.892 -38.5338 0.820913 0 255 255
-47.8925 -38.5333 0.819794 0 255 255
-47.8929 -38.5328 0.818659 0 255 255
-47.8933 -38.5323 0.817525 0 255 255
-47.8936 -38.5317 0.816391 0 255 255
-47.8939 -38.5311 0.815274 0 255 255
-47.8942 -38.5305 0.814186 0 255 255
-47.8944 -38.5298 0.813134 0 255 255
-47.8946 -38.5291 0.812126 0 255 255
-47.8948 -38.5283 0.811165 0 255 255
-47.895 -38.5275 0.810261 0 255 255
-47.8951 -38.5267 0.809402 0 255 255
-47.8953 -38.5258 0.808599 0 255 255
-47.8955 -38.5249 0.807855 0 255 255
-47.8957 -38.524 0.807176 0 255 255
-47.8959 -38.523 0.806567 0 255 255
-47.896 -38.522 0.806036 0 255 255
-47.8962 -38.521 0.805582 0 255 255
-47.8964 -38.52 0.80521 0 255 255
-47.8965 -38.5189 0.804922 0 255 255
-47.8966 -38.5178 0.804713 0 255 255
-47.8967 -38.5166 0.804581 0 255 255
-47.8967 -38.5155 0.804522 0 255 255
-47.8967 -38.5143 0.80453 0 255 255
-47.8967 -38.5131 0.804603 0 255 255
-47.8966 -38.5118 0.80474 0 255 255
-47.8965 -38.5106 0.804945 0 255 255
-47.8964 -38.5093 0.805224 0 255 255
-47.8962 -38.5081 0.805582 0 255 255
-47.896 -38.507 0.806024 0 255 255
-47.8958 -38.5059 0.80655 0 255 255
-47.8955 -38.5049 0.807155 0 255 255
-47.8952 -38.504 0.80783 0 255 255
-47.8949 -38.5032 0.808555 0 255 255
-47.8946 -38.5026 0.809321 0 255 255
-47.8942 -38.502 0.810105 0 255 255
-47.8939 -38.5016 0.810904 0 255 255
-47.8935 -38.5013 0.811701 0 255 255
-47.8932 -38.5011 0.812486 0 255 255
-47.8928 -38.5009 0.813243 0 255 255
-47.8925 -38.5008 0.81396 0 255 255
-47.8921 -38.5008 0.81464 0 255 255
-47.8917 -38.5007 0.815284 0 255 255
-47.8913 -38.5007 0.815907 0 255 255
-47.8909 -38.5008 0.816523 0 255 255
-47.8906 -38.5008 0.817154 0 255 255
-47.8903 -38.5008 0.817812 0 255 255
-47.89 -38.5009 0.818523 0 255 255
-47.8897 -38.501 0.819294 0 255 255
-47.8894 -38.5011 0.820137 0 255 255
-47.8891 -38.5012 0.821057 0 255 255
-47.8889 -38.5014 0.82206 0 255 255
-47.8886 -38.5015 0.823146 0 255 255
-47.8883 -38.5017 0.824314 0 255 255
-47.8879 -38.502 0.82555 0 255 255
-47.8875 -38.5022 0.826861 0 255 255
-47.8871 -38.5025 0.828225 0 255 255
-47.8866 -38.5029 0.829619 0 255 255
-47.8861 -38.5033 0.831043 0 255 255
-47.8856 -38.5037 0.83247 0 255 255
-47.885 -38.5041 0.833883 0 255 255
-47.8844 -38.5046 0.835267 0 255 255
-47.8838 -38.5051 0.836598 0 255 255
-47.8831 -38.5056 0.837877 0 255 255
-47.8825 -38.5062 0.839086 0 255 255
-47.8818 -38.5068 0.840216 0 255 255
-47.8812 -38.5074 0.841263 0 255 255
-47.8806 -38.508 0.842216 0 255 255
-47.8799 -38.5087 0.843085 0 255 255
-47.8793 -38.5093 0.843864 0 255 255
-47.8787 -38.51 0.844552 0 255 255
-47.8781 -38.5107 0.84515 0 255 255
-47.8775 -38.5114 0.845661 0 255 255
-47.8769 -38.5121 0.846082 0 255 255
-47.8764 -38.5128 0.846421 0 255 255
-47.8758 -38.5135 0.846675 0 255 255
-47.8753 -38.5142 0.846848 0 255 255
-47.8748 -38.5148 0.846939 0 255 255
-47.8743 -38.5155 0.846948 0 255 255
-47.8738 -38.5162 0.846875 0 255 255
-47.8734 -38.5168 0.846722 0 255 255
-47.8729 -38.5175 0.846488 0 255 255
-47.8725 -38.5181 0.846177 0 255 255
-47.872 -38.5187 0.845791 0 255 255
-47.8716 -38.5193 0.84534 0 255 255
-47.8713 -38.5199 0.844818 0 255 255
-47.8709 -38.5205 0.844235 0 255 255
-47.8705 -38.5211 0.843593 0 255 255
-47.8702 -38.5216 0.842903 0 255 255
-47.8699 -38.5221 0.842159 0 255 255
-47.8696 -38.5225 0.841369 0 255 255
-47.8694 -38.5229 0.840537 0 255 255
-47.8692 -38.5233 0.839668 0 255 255
-47.869 -38.5236 0.838772 0 255 255
-47.8688 -38.5239 0.837844 0 255 255
-47.8687 -38.5241 0.8369 0 255 255
-47.8685 -38.5243 0.835934 0 255 255
-47.8684 -38.5245 0.83496 0 255 255
-47.8683 -38.5245 0.833984 0 255 255
-47.8682 -38.5246 0.833012 0 255 255
-47.8681 -38.5246 0.832047 0 255 255
-47.868 -38.5245 0.831097 0 255 255
-47.8679 -38.5244 0.830148 0 255 255
-47.8677 -38.5243 0.829206 0 255 255
-47.8676 -38.5241 0.828268 0 255 255
-47.8674 -38.5239 0.827339 0 255 255
