ply
format ascii 1.0
element vertex 1327
property float x
property float y
property float z
property uchar red
property uchar green
property uchar blue
element face 0
property list uchar int vertex_indices
end_header
-17.2268 -26.4306 0.911448 0 255 255
-17.2284 -26.4331 0.912749 0 255 255
-17.23 -26.4355 0.913936 0 255 255
-17.2316 -26.4379 0.915005 0 255 255
-17.2332 -26.4403 0.915952 0 255 255
-17.2349 -26.4427 0.916778 0 255 255
-17.2366 -26.4451 0.917482 0 255 255
-17.2383 -26.4474 0.918063 0 255 255
-17.24 -26.4498 0.91853 0 255 255
-17.2435 -26.4545 0.919236 0 255 255
-17.2452 -26.4567 0.919367 0 255 255
-17.2469 -26.459 0.919398 0 255 255
-17.2487 -26.4613 0.919333 0 255 255
-17.2504 -26.4635 0.919176 0 255 255
-17.2521 -26.4657 0.918932 0 255 255
-17.2539 -26.4678 0.918608 0 255 255
-17.2556 -26.47 0.918205 0 255 255
-17.2574 -26.4721 0.917731 0 255 255
-17.2592 -26.4742 0.917188 0 255 255
-17.261 -26.4763 0.916583 0 255 255
-17.2629 -26.4783 0.915924 0 255 255
-17.2647 -26.4803 0.91521 0 255 255
-17.2666 -26.4823 0.914449 0 255 255
-17.2686 -26.4842 0.913647 0 255 255
-17.2705 -26.4861 0.912807 0 255 255
-17.2726 -26.4879 0.911934 0 255 255
-17.2746 -26.4897 0.91104 0 255 255
-17.2767 -26.4915 0.910114 0 255 255
-17.2789 -26.4932 0.909166 0 255 255
-17.2811 -26.4948 0.908197 0 255 255
-17.2833 -26.4965 0.907219 0 255 255
-17.2856 -26.498 0.90622 0 255 255
-17.2879 -26.4996 0.905211 0 255 255
-17.2902 -26.501 0.904197 0 255 255
-17.2925 -26.5025 0.903185 0 255 255
-17.2948 -26.5039 0.902191 0 255 255
-17.2972 -26.5053 0.901213 0 255 255
-17.2995 -26.5066 0.900266 0 255 255
-17.3018 -26.5079 0.899359 0 255 255
-17.3041 -26.5092 0.8985 0 255 255
-17.3064 -26.5103 0.897702 0 255 255
-17.3087 -26.5115 0.896959 0 255 255
-17.3109 -26.5126 0.896295 0 255 255
-17.3132 -26.5137 0.895699 0 255 255
-17.3155 -26.5147 0.895183 0 255 255
-17.3178 -26.5157 0.89474 0 255 255
-17.3202 -26.5167 0.894382 0 255 255
-17.3226 -26.5175 0.894105 0 255 255
-17.325 -26.5183 0.893911 0 255 255
-17.3275 -26.519 0.893796 0 255 255
-17.3301 -26.5197 0.893761 0 255 255
-17.3326 -26.5202 0.893802 0 255 255
-17.3352 -26.5206 0.893913 0 255 255
-17.3379 -26.5209 0.89409 0 255 255
-17.3406 -26.5211 0.894323 0 255 255
-17.3433 -26.5213 0.8946 0 255 255
-17.346 -26.5214 0.894909 0 255 255
-17.3489 -26.5215 0.895249 0 255 255
-17.3518 -26.5216 0.895627 0 255 255
-17.3548 -26.5218 0.896058 0 255 255
-17.3579 -26.522 0.89655 0 255 255
-17.3612 -26.5222 0.897115 0 255 255
-17.3645 -26.5226 0.897752 0 255 255
-17.3679 -26.523 0.898461 0 255 255
-17.3713 -26.5236 0.899241 0 255 255
-17.3747 -26.5243 0.900089 0 255 255
-17.3781 -26.5252 0.901001 0 255 255
-17.3816 -26.5262 0.901963 0 255 255
-17.3851 -26.5273 0.90298 0 255 255
-17.3886 -26.5285 0.904039 0 255 255
-17.3922 -26.5298 0.905134 0 255 255
-17.3958 -26.5313 0.90626 0 255 255
-17.3994 -26.5328 0.907405 0 255 255
-17.403 -26.5343 0.908578 0 255 255
-17.4067 -26.5359 0.909773 0 255 255
-17.4104 -26.5376 0.910983 0 255 255
-17.4141 -26.5393 0.912206 0 255 255
-17.4178 -26.541 0.913427 0 255 255
-17.4215 -26.5427 0.914658 0 255 255
-17.4253 -26.5445 0.91589 0 255 255
-17.4291 -26.5462 0.917115 0 255 255
-17.433 -26.548 0.91836 0 255 255
-17.4368 -26.5498 0.919599 0 255 255
-17.4407 -26.5517 0.920861 0 255 255
-17.4447 -26.5535 0.922145 0 255 255
-17.4487 -26.5553 0.923452 0 255 255
-17.4527 -26.5572 0.924785 0 255 255
-17.4567 -26.559 0.92613 0 255 255
-17.4607 -26.5609 0.927503 0 255 255
-17.4648 -26.5628 0.928867 0 255 255
-17.4688 -26.5647 0.930218 0 255 255
-17.4728 -26.5666 0.931539 0 255 255
-17.4768 -26.5685 0.932818 0 255 255
-17.4807 -26.5705 0.934043 0 255 255
-17.4847 -26.5724 0.935195 0 255 255
-17.4886 -26.5743 0.936278 0 255 255
-17.4925 -26.5763 0.937276 0 255 255
-17.4963 -26.5783 0.938182 0 255 255
-17.5002 -26.5802 0.93899 0 255 255
-17.504 -26.5822 0.939707 0 255 255
-17.5078 -26.5842 0.940327 0 255 255
-17.5116 -26.5863 0.940852 0 255 255
-17.5154 -26.5883 0.941286 0 255 255
-17.5192 -26.5903 0.941629 0 255 255
-17.523 -26.5924 0.941894 0 255 255
-17.5268 -26.5945 0.94208 0 255 255
-17.5305 -26.5966 0.942194 0 255 255
-17.5343 -26.5987 0.94224 0 255 255
-17.5381 -26.6008 0.942222 0 255 255
-17.5418 -26.6029 0.942144 0 255 255
-17.5455 -26.605 0.942014 0 255 255
-17.5492 -26.6071 0.941839 0 255 255
-17.5529 -26.6092 0.941623 0 255 255
-17.5565 -26.6113 0.941367 0 255 255
-17.5601 -26.6133 0.941073 0 255 255
-17.5636 -26.6154 0.940739 0 255 255
-17.5671 -26.6174 0.940368 0 255 255
-17.5706 -26.6194 0.939957 0 255 255
-17.574 -26.6213 0.939508 0 255 255
-17.5773 -26.6233 0.939025 0 255 255
-17.5806 -26.6252 0.938503 0 255 255
-17.5838 -26.627 0.937948 0 255 255
-17.587 -26.6289 0.937349 0 255 255
-17.5901 -26.6307 0.93672 0 255 255
-17.5932 -26.6324 0.936046 0 255 255
-17.5962 -26.6342 0.935339 0 255 255
-17.5992 -26.6359 0.934597 0 255 255
-17.6022 -26.6375 0.933823 0 255 255
-17.6052 -26.6391 0.933019 0 255 255
-17.6082 -26.6407 0.932189 0 255 255
-17.6111 -26.6421 0.931345 0 255 255
-17.6141 -26.6436 0.93048 0 255 255
-17.6171 -26.645 0.929607 0 255 255
-17.6201 -26.6463 0.928731 0 255 255
-17.6231 -26.6476 0.927862 0 255 255
-17.626 -26.6488 0.927012 0 255 255
-17.629 -26.65 0.926178 0 255 255
-17.6319 -26.6511 0.925375 0 255 255
-17.6349 -26.6521 0.924607 0 255 255
-17.6378 -26.6531 0.923879 0 255 255
-17.6407 -26.6541 0.923198 0 255 255
-17.6437 -26.655 0.922553 0 255 255
-17.6466 -26.6558 0.921952 0 255 255
-17.6496 -26.6566 0.92139 0 255 255
-17.6526 -26.6574 0.920866 0 255 255
-17.6556 -26.6581 0.920385 0 255 255
-17.6587 -26.6588 0.919951 0 255 255
-17.6618 -26.6594 0.919569 0 255 255
-17.6649 -26.66 0.919244 0 255 255
-17.6679 -26.6606 0.918981 0 255 255
-17.671 -26.661 0.918785 0 255 255
-17.6741 -26.6614 0.918658 0 255 255
-17.6771 -26.6618 0.918604 0 255 255
-17.6802 -26.662 0.918621 0 255 255
-17.6833 -26.6622 0.918707 0 255 255
-17.6863 -26.6623 0.918854 0 255 255
-17.6894 -26.6623 0.919059 0 255 255
-17.6925 -26.6623 0.919313 0 255 255
-17.6957 -26.6622 0.919615 0 255 255
-17.6988 -26.6621 0.919964 0 255 255
-17.7019 -26.662 0.920368 0 255 255
-17.705 -26.662 0.920839 0 255 255
-17.7081 -26.6619 0.921385 0 255 255
-17.7111 -26.662 0.92201 0 255 255
-17.714 -26.6621 0.92273 0 255 255
-17.7169 -26.6623 0.923533 0 255 255
-17.7198 -26.6626 0.92442 0 255 255
-17.7225 -26.663 0.925376 0 255 255
-17.7252 -26.6635 0.926399 0 255 255
-17.7278 -26.6641 0.927468 0 255 255
-17.7304 -26.6648 0.928568 0 255 255
-17.733 -26.6656 0.929685 0 255 255
-17.7355 -26.6664 0.930798 0 255 255
-17.7405 -26.668 0.933021 0 255 255
-17.7429 -26.6689 0.934099 0 255 255
-17.7454 -26.6698 0.935164 0 255 255
-17.7478 -26.6708 0.936218 0 255 255
-17.7503 -26.6718 0.93729 0 255 255
-17.7528 -26.6728 0.938388 0 255 255
-17.7552 -26.6738 0.939523 0 255 255
-17.7577 -26.6749 0.940707 0 255 255
-17.7603 -26.676 0.941949 0 255 255
-17.7628 -26.6771 0.943258 0 255 255
-17.7653 -26.6782 0.944638 0 255 255
-17.7679 -26.6794 0.946084 0 255 255
-17.7704 -26.6806 0.947608 0 255 255
-17.7729 -26.6818 0.949195 0 255 255
-17.7754 -26.683 0.950826 0 255 255
-17.778 -26.6843 0.952508 0 255 255
-17.7805 -26.6856 0.954217 0 255 255
-17.783 -26.6868 0.955936 0 255 255
-17.7855 -26.6881 0.957636 0 255 255
-17.7879 -26.6895 0.959318 0 255 255
-17.7904 -26.6908 0.96095 0 255 255
-17.7929 -26.6921 0.962511 0 255 255
-17.7954 -26.6935 0.963986 0 255 255
-17.7978 -26.6948 0.965359 0 255 255
-17.8003 -26.6962 0.96661 0 255 255
-17.8028 -26.6975 0.967748 0 255 255
-17.8052 -26.6989 0.96876 0 255 255
-17.8077 -26.7003 0.969644 0 255 255
-17.8101 -26.7017 0.970401 0 255 255
-17.8125 -26.7031 0.97105 0 255 255
-17.8149 -26.7045 0.971582 0 255 255
-17.8173 -26.7059 0.972012 0 255 255
-17.8197 -26.7073 0.972351 0 255 255
-17.8221 -26.7087 0.972602 0 255 255
-17.8245 -26.71 0.972772 0 255 255
-17.8269 -26.7114 0.972866 0 255 255
-17.8294 -26.7128 0.972891 0 255 255
-17.8318 -26.7141 0.972852 0 255 255
-17.8343 -26.7155 0.972751 0 255 255
-17.8368 -26.7169 0.972589 0 255 255
-17.8394 -26.7182 0.972371 0 255 255
-17.8419 -26.7195 0.972096 0 255 255
-17.8445 -26.7209 0.971762 0 255 255
-17.8472 -26.7222 0.971369 0 255 255
-17.8498 -26.7235 0.970915 0 255 255
-17.8525 -26.7248 0.970401 0 255 255
-17.8553 -26.7261 0.969821 0 255 255
-17.8581 -26.7274 0.969175 0 255 255
-17.8609 -26.7287 0.968463 0 255 255
-17.8638 -26.7299 0.967691 0 255 255
-17.8668 -26.7312 0.966845 0 255 255
-17.8699 -26.7324 0.96594 0 255 255
-17.873 -26.7336 0.964973 0 255 255
-17.8762 -26.7348 0.963945 0 255 255
-17.8794 -26.736 0.962863 0 255 255
-17.8826 -26.7371 0.961733 0 255 255
-17.8859 -26.7382 0.960573 0 255 255
-17.8893 -26.7392 0.959378 0 255 255
-17.8927 -26.7402 0.958167 0 255 255
-17.8961 -26.7412 0.956953 0 255 255
-17.8995 -26.7421 0.955748 0 255 255
-17.903 -26.743 0.954566 0 255 255
-17.9064 -26.7438 0.953423 0 255 255
-17.9098 -26.7446 0.952322 0 255 255
-17.9133 -26.7453 0.951263 0 255 255
-17.9167 -26.746 0.95026 0 255 255
-17.9202 -26.7467 0.94932 0 255 255
-17.9236 -26.7473 0.948448 0 255 255
-17.9271 -26.7479 0.947645 0 255 255
-17.9306 -26.7485 0.94692 0 255 255
-17.9341 -26.749 0.946261 0 255 255
-17.9376 -26.7496 0.945701 0 255 255
-17.9412 -26.7501 0.945234 0 255 255
-17.9449 -26.7507 0.944861 0 255 255
-17.9487 -26.7511 0.944583 0 255 255
-17.9525 -26.7516 0.944404 0 255 255
-17.9564 -26.7519 0.944316 0 255 255
-17.9604 -26.7522 0.944307 0 255 255
-17.9644 -26.7524 0.944369 0 255 255
-17.9684 -26.7525 0.944491 0 255 255
-17.9725 -26.7526 0.944664 0 255 255
-17.9766 -26.7525 0.944877 0 255 255
-17.9808 -26.7525 0.945119 0 255 255
-17.985 -26.7525 0.945392 0 255 255
-17.9892 -26.7525 0.945714 0 255 255
-17.9935 -26.7525 0.946098 0 255 255
-17.9979 -26.7526 0.946555 0 255 255
-18.0023 -26.7528 0.947086 0 255 255
-18.0067 -26.7531 0.947684 0 255 255
-18.0112 -26.7536 0.948356 0 255 255
-18.0155 -26.7541 0.949094 0 255 255
-18.0199 -26.7548 0.949895 0 255 255
-18.0242 -26.7555 0.950749 0 255 255
-18.0284 -26.7564 0.951644 0 255 255
-18.0327 -26.7574 0.952575 0 255 255
-18.0369 -26.7584 0.953527 0 255 255
-18.0411 -26.7596 0.954508 0 255 255
-18.0453 -26.7607 0.955512 0 255 255
-18.0495 -26.762 0.956542 0 255 255
-18.0536 -26.7632 0.957594 0 255 255
-18.0578 -26.7645 0.958685 0 255 255
-18.062 -26.7658 0.959812 0 255 255
-18.0662 -26.7672 0.960978 0 255 255
-18.0704 -26.7685 0.96219 0 255 255
-18.0745 -26.7699 0.963443 0 255 255
-18.0787 -26.7714 0.964753 0 255 255
-18.0829 -26.7729 0.966116 0 255 255
-18.087 -26.7743 0.967531 0 255 255
-18.0912 -26.7759 0.969002 0 255 255
-18.0953 -26.7774 0.970516 0 255 255
-18.0995 -26.7789 0.97208 0 255 255
-18.1036 -26.7804 0.973696 0 255 255
-18.1077 -26.7819 0.975344 0 255 255
-18.1118 -26.7835 0.977007 0 255 255
-18.1159 -26.785 0.978665 0 255 255
-18.12 -26.7865 0.980323 0 255 255
-18.124 -26.7881 0.981955 0 255 255
-18.128 -26.7896 0.983546 0 255 255
-18.1319 -26.7911 0.98507 0 255 255
-18.1359 -26.7926 0.986543 0 255 255
-18.1398 -26.7941 0.987921 0 255 255
-18.1437 -26.7956 0.989202 0 255 255
-18.1476 -26.7972 0.990374 0 255 255
-18.1515 -26.7987 0.991432 0 255 255
-18.1554 -26.8002 0.992369 0 255 255
-18.1592 -26.8018 0.993177 0 255 255
-18.1631 -26.8034 0.993865 0 255 255
-18.1669 -26.805 0.994429 0 255 255
-18.1708 -26.8066 0.994868 0 255 255
-18.1747 -26.8082 0.995186 0 255 255
-18.1787 -26.8098 0.995387 0 255 255
-18.1826 -26.8115 0.995478 0 255 255
-18.1865 -26.8131 0.995467 0 255 255
-18.1905 -26.8147 0.995363 0 255 255
-18.1944 -26.8163 0.995175 0 255 255
-18.1983 -26.8179 0.994911 0 255 255
-18.2022 -26.8195 0.994582 0 255 255
-18.2061 -26.821 0.99419 0 255 255
-18.2099 -26.8225 0.993744 0 255 255
-18.2137 -26.824 0.993249 0 255 255
-18.2174 -26.8254 0.992707 0 255 255
-18.2211 -26.8268 0.992126 0 255 255
-18.2247 -26.8281 0.991503 0 255 255
-18.2283 -26.8294 0.990845 0 255 255
-18.2319 -26.8307 0.990154 0 255 255
-18.2354 -26.8319 0.989431 0 255 255
-18.2388 -26.8331 0.988683 0 255 255
-18.2422 -26.8343 0.987899 0 255 255
-18.2456 -26.8354 0.987085 0 255 255
-18.2489 -26.8364 0.986247 0 255 255
-18.2522 -26.8374 0.985375 0 255 255
-18.2555 -26.8384 0.984473 0 255 255
-18.2587 -26.8393 0.983541 0 255 255
-18.2619 -26.8401 0.982583 0 255 255
-18.2652 -26.8409 0.981598 0 255 255
-18.2684 -26.8417 0.98059 0 255 255
-18.2716 -26.8423 0.979565 0 255 255
-18.2747 -26.843 0.978534 0 255 255
-18.278 -26.8435 0.977494 0 255 255
-18.2812 -26.8441 0.97646 0 255 255
-18.2844 -26.8445 0.975441 0 255 255
-18.2877 -26.845 0.974446 0 255 255
-18.291 -26.8454 0.973491 0 255 255
-18.2943 -26.8457 0.97257 0 255 255
-18.2976 -26.846 0.971696 0 255 255
-18.301 -26.8463 0.970873 0 255 255
-18.3045 -26.8466 0.970106 0 255 255
-18.3079 -26.8468 0.969404 0 255 255
-18.3114 -26.847 0.968763 0 255 255
-18.315 -26.8472 0.96819 0 255 255
-18.3185 -26.8474 0.967693 0 255 255
-18.3221 -26.8475 0.967267 0 255 255
-18.3256 -26.8476 0.966919 0 255 255
-18.3292 -26.8476 0.96665 0 255 255
-18.3327 -26.8476 0.966462 0 255 255
-18.3362 -26.8475 0.966358 0 255 255
-18.3398 -26.8473 0.966338 0 255 255
-18.3433 -26.8471 0.9664 0 255 255
-18.3468 -26.8469 0.966542 0 255 255
-18.3503 -26.8466 0.96676 0 255 255
-18.3538 -26.8463 0.967051 0 255 255
-18.3573 -26.846 0.967415 0 255 255
-18.3607 -26.8458 0.967858 0 255 255
-18.3642 -26.8455 0.968387 0 255 255
-18.3675 -26.8454 0.96902 0 255 255
-18.3708 -26.8453 0.969761 0 255 255
-18.3741 -26.8452 0.970612 0 255 255
-18.3772 -26.8453 0.971566 0 255 255
-18.3801 -26.8454 0.972613 0 255 255
-18.383 -26.8456 0.973734 0 255 255
-18.3858 -26.8459 0.974899 0 255 255
-18.3884 -26.8462 0.976096 0 255 255
-18.391 -26.8466 0.977316 0 255 255
-18.3935 -26.8471 0.978521 0 255 255
-18.3959 -26.8476 0.979711 0 255 255
-18.3983 -26.8481 0.980864 0 255 255
-18.4007 -26.8487 0.981973 0 255 255
-18.403 -26.8492 0.983042 0 255 255
-18.4053 -26.8498 0.98408 0 255 255
-18.4075 -26.8504 0.985097 0 255 255
-18.4098 -26.851 0.986124 0 255 255
-18.412 -26.8516 0.98717 0 255 255
-18.4143 -26.8523 0.988254 0 255 255
-18.4165 -26.8529 0.989389 0 255 255
-18.4187 -26.8536 0.990579 0 255 255
-18.4209 -26.8543 0.991847 0 255 255
-18.423 -26.855 0.993189 0 255 255
-18.4252 -26.8558 0.994604 0 255 255
-18.4274 -26.8565 0.996086 0 255 255
-18.4295 -26.8573 0.997615 0 255 255
-18.4317 -26.8581 0.999198 0 255 255
-18.4338 -26.8589 1.00081 0 255 255
-18.4359 -26.8597 1.00245 0 255 255
-18.4381 -26.8605 1.00409 0 255 255
-18.4402 -26.8614 1.00572 0 255 255
-18.4423 -26.8623 1.0073 0 255 255
-18.4445 -26.8632 1.00885 0 255 255
-18.4466 -26.8641 1.01033 0 255 255
-18.4487 -26.865 1.01173 0 255 255
-18.4507 -26.8659 1.01304 0 255 255
-18.4528 -26.8669 1.01427 0 255 255
-18.4548 -26.8678 1.01538 0 255 255
-18.4569 -26.8688 1.01639 0 255 255
-18.4588 -26.8697 1.01728 0 255 255
-18.4608 -26.8706 1.01807 0 255 255
-18.4627 -26.8716 1.01874 0 255 255
-18.4647 -26.8725 1.01932 0 255 255
-18.4666 -26.8734 1.01979 0 255 255
-18.4686 -26.8743 1.02017 0 255 255
-18.4705 -26.8753 1.02046 0 255 255
-18.4725 -26.8762 1.02067 0 255 255
-18.4745 -26.8771 1.02079 0 255 255
-18.4766 -26.878 1.02084 0 255 255
-18.4786 -26.8788 1.02082 0 255 255
-18.4807 -26.8797 1.02072 0 255 255
-18.4829 -26.8806 1.02057 0 255 255
-18.4851 -26.8815 1.02034 0 255 255
-18.4873 -26.8823 1.02006 0 255 255
-18.4896 -26.8832 1.0197 0 255 255
-18.4919 -26.8841 1.01928 0 255 255
-18.4942 -26.885 1.0188 0 255 255
-18.4966 -26.8859 1.01826 0 255 255
-18.499 -26.8868 1.01764 0 255 255
-18.5015 -26.8877 1.01696 0 255 255
-18.504 -26.8885 1.01621 0 255 255
-18.5066 -26.8894 1.0154 0 255 255
-18.5092 -26.8903 1.01451 0 255 255
-18.5118 -26.8911 1.01356 0 255 255
-18.5146 -26.8919 1.01255 0 255 255
-18.5173 -26.8927 1.01148 0 255 255
-18.5201 -26.8935 1.01036 0 255 255
-18.5229 -26.8942 1.00919 0 255 255
-18.5258 -26.8949 1.00798 0 255 255
-18.5287 -26.8955 1.00673 0 255 255
-18.5316 -26.8962 1.00546 0 255 255
-18.5345 -26.8968 1.00419 0 255 255
-18.5375 -26.8973 1.00292 0 255 255
-18.5405 -26.8979 1.00168 0 255 255
-18.5435 -26.8984 1.00046 0 255 255
-18.5464 -26.8988 0.999297 0 255 255
-18.5494 -26.8992 0.99818 0 255 255
-18.5524 -26.8996 0.997126 0 255 255
-18.5553 -26.9 0.996126 0 255 255
-18.5582 -26.9003 0.995189 0 255 255
-18.5611 -26.9006 0.99432 0 255 255
-18.564 -26.9009 0.993519 0 255 255
-18.5668 -26.9011 0.992796 0 255 255
-18.5697 -26.9014 0.992144 0 255 255
-18.5726 -26.9016 0.991573 0 255 255
-18.5755 -26.9018 0.991087 0 255 255
-18.5785 -26.9019 0.990688 0 255 255
-18.5815 -26.902 0.990378 0 255 255
-18.5846 -26.902 0.990151 0 255 255
-18.5877 -26.9019 0.990004 0 255 255
-18.5908 -26.9017 0.989931 0 255 255
-18.594 -26.9014 0.989924 0 255 255
-18.5972 -26.9011 0.989973 0 255 255
-18.6004 -26.9007 0.990069 0 255 255
-18.6036 -26.9002 0.990201 0 255 255
-18.6069 -26.8998 0.990369 0 255 255
-18.6102 -26.8993 0.990583 0 255 255
-18.6136 -26.899 0.990861 0 255 255
-18.617 -26.8987 0.991217 0 255 255
-18.6205 -26.8985 0.991669 0 255 255
-18.624 -26.8984 0.992217 0 255 255
-18.6275 -26.8984 0.992864 0 255 255
-18.631 -26.8985 0.993606 0 255 255
-18.6344 -26.8988 0.994433 0 255 255
-18.6379 -26.8992 0.995342 0 255 255
-18.6413 -26.8997 0.996313 0 255 255
-18.6447 -26.9003 0.997328 0 255 255
-18.648 -26.901 0.998375 0 255 255
-18.6514 -26.9018 0.999441 0 255 255
-18.6548 -26.9027 1.00052 0 255 255
-18.6581 -26.9036 1.00161 0 255 255
-18.6615 -26.9045 1.0027 0 255 255
-18.6649 -26.9054 1.0038 0 255 255
-18.6682 -26.9064 1.00491 0 255 255
-18.6716 -26.9074 1.00602 0 255 255
-18.675 -26.9083 1.00714 0 255 255
-18.6783 -26.9094 1.00828 0 255 255
-18.6817 -26.9104 1.00945 0 255 255
-18.685 -26.9114 1.01064 0 255 255
-18.6883 -26.9125 1.01188 0 255 255
-18.6916 -26.9135 1.01315 0 255 255
-18.6949 -26.9146 1.01446 0 255 255
-18.6982 -26.9157 1.01581 0 255 255
-18.7015 -26.9168 1.0172 0 255 255
-18.7048 -26.9179 1.01861 0 255 255
-18.708 -26.919 1.02005 0 255 255
-18.7113 -26.9202 1.0215 0 255 255
-18.7145 -26.9213 1.02295 0 255 255
-18.7177 -26.9224 1.02437 0 255 255
-18.7209 -26.9235 1.02577 0 255 255
-18.724 -26.9246 1.02713 0 255 255
-18.7271 -26.9257 1.02842 0 255 255
-18.7301 -26.9268 1.02964 0 255 255
-18.7331 -26.9279 1.03077 0 255 255
-18.7361 -26.929 1.03182 0 255 255
-18.7391 -26.9301 1.03276 0 255 255
-18.742 -26.9312 1.03359 0 255 255
-18.7449 -26.9323 1.03433 0 255 255
-18.7478 -26.9333 1.03497 0 255 255
-18.7506 -26.9344 1.03551 0 255 255
-18.7535 -26.9355 1.03596 0 255 255
-18.7563 -26.9366 1.03631 0 255 255
-18.7592 -26.9377 1.03659 0 255 255
-18.762 -26.9389 1.03679 0 255 255
-18.7649 -26.94 1.03692 0 255 255
-18.7677 -26.9411 1.03698 0 255 255
-18.7706 -26.9422 1.03698 0 255 255
-18.7734 -26.9432 1.03693 0 255 255
-18.7762 -26.9443 1.03683 0 255 255
-18.779 -26.9454 1.03668 0 255 255
-18.7818 -26.9464 1.03649 0 255 255
-18.7845 -26.9475 1.03627 0 255 255
-18.7872 -26.9485 1.036 0 255 255
-18.7899 -26.9494 1.03569 0 255 255
-18.7951 -26.9513 1.035 0 255 255
-18.7977 -26.9522 1.03457 0 255 255
-18.8002 -26.9531 1.03409 0 255 255
-18.8027 -26.9539 1.03355 0 255 255
-18.8051 -26.9547 1.03296 0 255 255
-18.8075 -26.9554 1.0323 0 255 255
-18.8098 -26.9561 1.03159 0 255 255
-18.8121 -26.9568 1.03081 0 255 255
-18.8144 -26.9574 1.02996 0 255 255
-18.8167 -26.9579 1.02906 0 255 255
-18.8189 -26.9584 1.02809 0 255 255
-18.8211 -26.9588 1.02708 0 255 255
-18.8233 -26.9592 1.02601 0 255 255
-18.8255 -26.9595 1.0249 0 255 255
-18.8277 -26.9598 1.02376 0 255 255
-18.8299 -26.96 1.0226 0 255 255
-18.8321 -26.9602 1.02142 0 255 255
-18.8342 -26.9603 1.02024 0 255 255
-18.8364 -26.9604 1.01908 0 255 255
-18.8386 -26.9604 1.01794 0 255 255
-18.8408 -26.9604 1.01685 0 255 255
-18.843 -26.9604 1.01581 0 255 255
-18.8452 -26.9603 1.01483 0 255 255
-18.8474 -26.9602 1.01393 0 255 255
-18.8497 -26.96 1.0131 0 255 255
-18.852 -26.9599 1.01237 0 255 255
-18.8543 -26.9596 1.01173 0 255 255
-18.8566 -26.9593 1.01118 0 255 255
-18.8588 -26.959 1.01073 0 255 255
-18.8611 -26.9586 1.01037 0 255 255
-18.8634 -26.9582 1.01011 0 255 255
-18.8656 -26.9576 1.00993 0 255 255
-18.8679 -26.957 1.00985 0 255 255
-18.87 -26.9564 1.00986 0 255 255
-18.8722 -26.9556 1.00996 0 255 255
-18.8743 -26.9548 1.01015 0 255 255
-18.8764 -26.954 1.01043 0 255 255
-18.8785 -26.9531 1.01081 0 255 255
-18.8806 -26.9522 1.01127 0 255 255
-18.8827 -26.9513 1.01184 0 255 255
-18.8848 -26.9504 1.01251 0 255 255
-18.8869 -26.9495 1.01329 0 255 255
-18.8888 -26.9487 1.0142 0 255 255
-18.8907 -26.9479 1.01523 0 255 255
-18.8925 -26.9472 1.01637 0 255 255
-18.8942 -26.9465 1.01761 0 255 255
-18.8957 -26.946 1.01892 0 255 255
-18.8972 -26.9455 1.02029 0 255 255
-18.8985 -26.9451 1.02168 0 255 255
-18.8998 -26.9447 1.02309 0 255 255
-18.901 -26.9445 1.02451 0 255 255
-18.9022 -26.9442 1.02591 0 255 255
-18.9033 -26.944 1.02728 0 255 255
-18.9044 -26.9439 1.0286 0 255 255
-18.9054 -26.9437 1.02989 0 255 255
-18.9064 -26.9436 1.03112 0 255 255
-18.9074 -26.9436 1.03231 0 255 255
-18.9084 -26.9435 1.03349 0 255 255
-18.9094 -26.9435 1.03465 0 255 255
-18.9105 -26.9436 1.03581 0 255 255
-18.9116 -26.9436 1.03699 0 255 255
-18.9127 -26.9437 1.03819 0 255 255
-18.9138 -26.9439 1.03943 0 255 255
-18.9149 -26.944 1.04069 0 255 255
-18.9161 -26.9442 1.042 0 255 255
-18.9173 -26.9444 1.04335 0 255 255
-18.9184 -26.9446 1.04474 0 255 255
-18.9195 -26.9448 1.04614 0 255 255
-18.9207 -26.945 1.04757 0 255 255
-18.9218 -26.9453 1.04899 0 255 255
-18.9228 -26.9455 1.05042 0 255 255
-18.9239 -26.9458 1.05183 0 255 255
-18.9249 -26.9461 1.05321 0 255 255
-18.9259 -26.9464 1.05455 0 255 255
-18.9268 -26.9466 1.05584 0 255 255
-18.9278 -26.9469 1.05706 0 255 255
-18.9286 -26.9472 1.05819 0 255 255
-18.9295 -26.9475 1.05926 0 255 255
-18.9303 -26.9478 1.06023 0 255 255
-18.9311 -26.9481 1.0611 0 255 255
-18.9319 -26.9485 1.06187 0 255 255
-18.9326 -26.9488 1.06254 0 255 255
-18.9334 -26.9491 1.06311 0 255 255
-18.9341 -26.9494 1.06359 0 255 255
-18.9349 -26.9498 1.06398 0 255 255
-18.9356 -26.9501 1.0643 0 255 255
-18.9364 -26.9504 1.06454 0 255 255
-18.9372 -26.9507 1.06471 0 255 255
-18.9381 -26.9511 1.06482 0 255 255
-18.9389 -26.9514 1.06486 0 255 255
-18.9398 -26.9518 1.06485 0 255 255
-18.9408 -26.9521 1.06478 0 255 255
-18.9418 -26.9524 1.06466 0 255 255
-18.9428 -26.9528 1.06448 0 255 255
-18.9439 -26.9531 1.06426 0 255 255
-18.945 -26.9535 1.06399 0 255 255
-18.9461 -26.9538 1.06367 0 255 255
-18.9473 -26.9542 1.0633 0 255 255
-18.9486 -26.9545 1.06287 0 255 255
-18.9498 -26.9549 1.0624 0 255 255
-18.9511 -26.9552 1.06187 0 255 255
-18.9525 -26.9555 1.06129 0 255 255
-18.9539 -26.9558 1.06065 0 255 255
-18.9553 -26.9561 1.05996 0 255 255
-18.9568 -26.9564 1.0592 0 255 255
-18.9583 -26.9566 1.05838 0 255 255
-18.9599 -26.9568 1.0575 0 255 255
-18.9615 -26.9569 1.05657 0 255 255
-18.9632 -26.9571 1.05558 0 255 255
-18.965 -26.9571 1.05454 0 255 255
-18.9667 -26.9572 1.05346 0 255 255
-18.9685 -26.9571 1.05234 0 255 255
-18.9704 -26.9571 1.05121 0 255 255
-18.9723 -26.957 1.05005 0 255 255
-18.9742 -26.9569 1.04889 0 255 255
-18.9761 -26.9568 1.04774 0 255 255
-18.978 -26.9566 1.04661 0 255 255
-18.98 -26.9563 1.04552 0 255 255
-18.9819 -26.9561 1.04447 0 255 255
-18.9839 -26.9558 1.04347 0 255 255
-18.9858 -26.9554 1.04252 0 255 255
-18.9877 -26.9551 1.04163 0 255 255
-18.9896 -26.9547 1.04081 0 255 255
-18.9914 -26.9543 1.04005 0 255 255
-18.9932 -26.9538 1.03936 0 255 255
-18.995 -26.9534 1.03874 0 255 255
-18.9969 -26.9529 1.0382 0 255 255
-18.9987 -26.9524 1.03775 0 255 255
-19.0006 -26.9519 1.03739 0 255 255
-19.0025 -26.9513 1.0371 0 255 255
-19.0045 -26.9507 1.0369 0 255 255
-19.0065 -26.9499 1.03678 0 255 255
-19.0085 -26.9491 1.03672 0 255 255
-19.0106 -26.9481 1.03672 0 255 255
-19.0126 -26.9471 1.03676 0 255 255
-19.0147 -26.9459 1.03683 0 255 255
-19.0168 -26.9448 1.03693 0 255 255
-19.0189 -26.9436 1.03703 0 255 255
-19.021 -26.9424 1.03716 0 255 255
-19.0232 -26.9412 1.03732 0 255 255
-19.0254 -26.9402 1.03752 0 255 255
-19.0276 -26.9391 1.03777 0 255 255
-19.0299 -26.9382 1.03808 0 255 255
-19.0321 -26.9374 1.03845 0 255 255
-19.0343 -26.9366 1.03888 0 255 255
-19.0366 -26.936 1.03936 0 255 255
-19.0387 -26.9355 1.03991 0 255 255
-19.0408 -26.9352 1.04052 0 255 255
-19.0429 -26.9349 1.04118 0 255 255
-19.045 -26.9348 1.04188 0 255 255
-19.0471 -26.9348 1.04264 0 255 255
-19.0493 -26.9349 1.04343 0 255 255
-19.0514 -26.9351 1.04426 0 255 255
-19.0536 -26.9353 1.04514 0 255 255
-19.0557 -26.9355 1.04606 0 255 255
-19.0579 -26.9358 1.04702 0 255 255
-19.0601 -26.9361 1.04802 0 255 255
-19.0623 -26.9364 1.04908 0 255 255
-19.0645 -26.9368 1.05019 0 255 255
-19.0667 -26.9373 1.05136 0 255 255
-19.0689 -26.9377 1.0526 0 255 255
-19.0711 -26.9382 1.0539 0 255 255
-19.0733 -26.9388 1.05527 0 255 255
-19.0755 -26.9394 1.05671 0 255 255
-19.0776 -26.94 1.05819 0 255 255
-19.0798 -26.9406 1.05975 0 255 255
-19.0819 -26.9412 1.06135 0 255 255
-19.084 -26.9419 1.06298 0 255 255
-19.0861 -26.9425 1.06463 0 255 255
-19.0881 -26.9432 1.06628 0 255 255
-19.0901 -26.9438 1.06791 0 255 255
-19.0921 -26.9444 1.0695 0 255 255
-19.094 -26.945 1.07105 0 255 255
-19.096 -26.9456 1.07252 0 255 255
-19.0979 -26.9462 1.07392 0 255 255
-19.0997 -26.9468 1.07522 0 255 255
-19.1016 -26.9474 1.07642 0 255 255
-19.1034 -26.948 1.07752 0 255 255
-19.1053 -26.9485 1.07851 0 255 255
-19.1071 -26.9491 1.07939 0 255 255
-19.109 -26.9497 1.08016 0 255 255
-19.1108 -26.9504 1.08082 0 255 255
-19.1127 -26.951 1.08136 0 255 255
-19.1146 -26.9517 1.0818 0 255 255
-19.1165 -26.9523 1.08214 0 255 255
-19.1185 -26.953 1.08236 0 255 255
-19.1204 -26.9537 1.0825 0 255 255
-19.1224 -26.9544 1.08254 0 255 255
-19.1244 -26.9551 1.0825 0 255 255
-19.1263 -26.9558 1.08237 0 255 255
-19.1282 -26.9565 1.08217 0 255 255
-19.1301 -26.9572 1.0819 0 255 255
-19.132 -26.9578 1.08157 0 255 255
-19.1338 -26.9585 1.08116 0 255 255
-19.1356 -26.9591 1.0807 0 255 255
-19.1374 -26.9597 1.08017 0 255 255
-19.1391 -26.9603 1.07959 0 255 255
-19.1407 -26.9608 1.07894 0 255 255
-19.1423 -26.9613 1.07824 0 255 255
-19.1439 -26.9618 1.07748 0 255 255
-19.1454 -26.9622 1.07667 0 255 255
-19.1468 -26.9627 1.07581 0 255 255
-19.1482 -26.963 1.07491 0 255 255
-19.1496 -26.9634 1.07397 0 255 255
-19.1509 -26.9636 1.07299 0 255 255
-19.1521 -26.9639 1.07197 0 255 255
-19.1534 -26.9641 1.07094 0 255 255
-19.1546 -26.9642 1.06988 0 255 255
-19.1558 -26.9643 1.06881 0 255 255
-19.157 -26.9643 1.06772 0 255 255
-19.1581 -26.9642 1.06663 0 255 255
-19.1593 -26.9641 1.06554 0 255 255
-19.1604 -26.9639 1.06446 0 255 255
-19.1616 -26.9637 1.06338 0 255 255
-19.1628 -26.9634 1.06232 0 255 255
-19.164 -26.9631 1.06128 0 255 255
-19.1652 -26.9627 1.06026 0 255 255
-19.1664 -26.9623 1.05926 0 255 255
-19.1676 -26.9619 1.05829 0 255 255
-19.1689 -26.9614 1.05735 0 255 255
-19.1702 -26.9609 1.05643 0 255 255
-19.1715 -26.9604 1.05555 0 255 255
-19.1729 -26.9598 1.05472 0 255 255
-19.1742 -26.9593 1.05393 0 255 255
-19.1755 -26.9586 1.05321 0 255 255
-19.1769 -26.958 1.05256 0 255 255
-19.1782 -26.9573 1.05201 0 255 255
-19.1795 -26.9566 1.05155 0 255 255
-19.1808 -26.9558 1.05119 0 255 255
-19.1821 -26.9549 1.05095 0 255 255
-19.1833 -26.954 1.05082 0 255 255
-19.1847 -26.9531 1.0508 0 255 255
-19.186 -26.9521 1.05088 0 255 255
-19.1873 -26.9511 1.05105 0 255 255
-19.1887 -26.95 1.05131 0 255 255
-19.19 -26.949 1.05166 0 255 255
-19.1914 -26.948 1.05209 0 255 255
-19.1927 -26.947 1.05261 0 255 255
-19.194 -26.9461 1.05322 0 255 255
-19.1952 -26.9452 1.05392 0 255 255
-19.1963 -26.9444 1.05469 0 255 255
-19.1973 -26.9437 1.05553 0 255 255
-19.1982 -26.9431 1.05642 0 255 255
-19.199 -26.9426 1.05735 0 255 255
-19.1998 -26.9421 1.05832 0 255 255
-19.2005 -26.9418 1.05931 0 255 255
-19.2011 -26.9415 1.0603 0 255 255
-19.2017 -26.9412 1.06128 0 255 255
-19.2022 -26.941 1.06224 0 255 255
-19.2027 -26.9408 1.06318 0 255 255
-19.2032 -26.9407 1.06409 0 255 255
-19.2036 -26.9406 1.06498 0 255 255
-19.2041 -26.9405 1.06585 0 255 255
-19.2046 -26.9404 1.06673 0 255 255
-19.2051 -26.9404 1.06762 0 255 255
-19.2057 -26.9404 1.06855 0 255 255
-19.2062 -26.9404 1.06953 0 255 255
-19.2067 -26.9404 1.07056 0 255 255
-19.2073 -26.9405 1.07166 0 255 255
-19.2078 -26.9405 1.07282 0 255 255
-19.2084 -26.9406 1.07406 0 255 255
-19.2089 -26.9407 1.07537 0 255 255
-19.2094 -26.9408 1.07674 0 255 255
-19.2099 -26.9408 1.07817 0 255 255
-19.2103 -26.9409 1.07964 0 255 255
-19.2107 -26.941 1.08115 0 255 255
-19.211 -26.9411 1.08267 0 255 255
-19.2113 -26.9412 1.08419 0 255 255
-19.2116 -26.9414 1.0857 0 255 255
-19.2119 -26.9415 1.08717 0 255 255
-19.2121 -26.9416 1.08861 0 255 255
-19.2124 -26.9417 1.08998 0 255 255
-19.2126 -26.9419 1.09128 0 255 255
-19.2128 -26.942 1.0925 0 255 255
-19.213 -26.9422 1.09363 0 255 255
-19.2133 -26.9424 1.09466 0 255 255
-19.2135 -26.9426 1.09559 0 255 255
-19.2138 -26.9428 1.09643 0 255 255
-19.2141 -26.943 1.09718 0 255 255
-19.2144 -26.9433 1.09783 0 255 255
-19.2148 -26.9435 1.09839 0 255 255
-19.2151 -26.9438 1.09886 0 255 255
-19.2155 -26.944 1.09926 0 255 255
-19.2159 -26.9443 1.09957 0 255 255
-19.2163 -26.9446 1.09981 0 255 255
-19.2168 -26.9449 1.09997 0 255 255
-19.2173 -26.9452 1.10007 0 255 255
-19.2178 -26.9455 1.10009 0 255 255
-19.2183 -26.9458 1.10004 0 255 255
-19.2189 -26.946 1.09992 0 255 255
-19.2195 -26.9463 1.09973 0 255 255
-19.2202 -26.9466 1.09947 0 255 255
-19.2209 -26.9468 1.09914 0 255 255
-19.2216 -26.9471 1.09875 0 255 255
-19.2223 -26.9473 1.09828 0 255 255
-19.2231 -26.9475 1.09776 0 255 255
-19.2239 -26.9477 1.09717 0 255 255
-19.2247 -26.9479 1.09652 0 255 255
-19.2256 -26.9481 1.09581 0 255 255
-19.2265 -26.9483 1.09504 0 255 255
-19.2275 -26.9484 1.09422 0 255 255
-19.2285 -26.9485 1.09333 0 255 255
-19.2296 -26.9486 1.0924 0 255 255
-19.2307 -26.9487 1.0914 0 255 255
-19.2318 -26.9487 1.09036 0 255 255
-19.233 -26.9487 1.08928 0 255 255
-19.2343 -26.9487 1.08815 0 255 255
-19.2355 -26.9487 1.08701 0 255 255
-19.2368 -26.9486 1.08584 0 255 255
-19.2381 -26.9485 1.08466 0 255 255
-19.2393 -26.9483 1.08349 0 255 255
-19.2406 -26.9481 1.08235 0 255 255
-19.2419 -26.9479 1.08122 0 255 255
-19.2433 -26.9477 1.08011 0 255 255
-19.2446 -26.9474 1.07903 0 255 255
-19.2458 -26.947 1.07798 0 255 255
-19.2471 -26.9466 1.07697 0 255 255
-19.2484 -26.9462 1.07598 0 255 255
-19.2496 -26.9458 1.07504 0 255 255
-19.2508 -26.9454 1.07412 0 255 255
-19.2521 -26.945 1.07326 0 255 255
-19.2533 -26.9445 1.07247 0 255 255
-19.2546 -26.9441 1.07175 0 255 255
-19.256 -26.9436 1.07112 0 255 255
-19.2573 -26.9431 1.07057 0 255 255
-19.2588 -26.9425 1.0701 0 255 255
-19.2603 -26.9419 1.06972 0 255 255
-19.2618 -26.9412 1.06942 0 255 255
-19.2634 -26.9404 1.06919 0 255 255
-19.2649 -26.9396 1.06903 0 255 255
-19.2664 -26.9387 1.06894 0 255 255
-19.268 -26.9377 1.0689 0 255 255
-19.2694 -26.9367 1.06892 0 255 255
-19.2709 -26.9357 1.06899 0 255 255
-19.2723 -26.9347 1.06913 0 255 255
-19.2738 -26.9338 1.06933 0 255 255
-19.2753 -26.9329 1.06961 0 255 255
-19.2767 -26.9321 1.06997 0 255 255
-19.2782 -26.9314 1.0704 0 255 255
-19.2797 -26.9308 1.0709 0 255 255
-19.2812 -26.9303 1.07147 0 255 255
-19.2826 -26.9299 1.07211 0 255 255
-19.284 -26.9296 1.07281 0 255 255
-19.2854 -26.9295 1.07356 0 255 255
-19.2867 -26.9294 1.07434 0 255 255
-19.2881 -26.9295 1.07514 0 255 255
-19.2895 -26.9296 1.07596 0 255 255
-19.2909 -26.9298 1.0768 0 255 255
-19.2923 -26.93 1.07765 0 255 255
-19.2936 -26.9303 1.07852 0 255 255
-19.295 -26.9307 1.07942 0 255 255
-19.2964 -26.9311 1.08035 0 255 255
-19.2977 -26.9315 1.08132 0 255 255
-19.2991 -26.932 1.08234 0 255 255
-19.3004 -26.9325 1.08341 0 255 255
-19.3017 -26.9331 1.08455 0 255 255
-19.303 -26.9337 1.08576 0 255 255
-19.3042 -26.9343 1.08703 0 255 255
-19.3055 -26.9349 1.08835 0 255 255
-19.3067 -26.9356 1.08974 0 255 255
-19.3079 -26.9363 1.09118 0 255 255
-19.3091 -26.9371 1.09266 0 255 255
-19.3102 -26.9378 1.09417 0 255 255
-19.3114 -26.9386 1.0957 0 255 255
-19.3124 -26.9393 1.09723 0 255 255
-19.3135 -26.9401 1.09877 0 255 255
-19.3145 -26.9408 1.10027 0 255 255
-19.3155 -26.9416 1.10174 0 255 255
-19.3165 -26.9424 1.10316 0 255 255
-19.3174 -26.9431 1.10452 0 255 255
-19.3184 -26.9439 1.10579 0 255 255
-19.3193 -26.9447 1.10699 0 255 255
-19.3202 -26.9454 1.1081 0 255 255
-19.3211 -26.9462 1.10912 0 255 255
-19.322 -26.947 1.11004 0 255 255
-19.3229 -26.9478 1.11087 0 255 255
-19.3238 -26.9486 1.1116 0 255 255
-19.3247 -26.9494 1.11224 0 255 255
-19.3256 -26.9502 1.11279 0 255 255
-19.3265 -26.951 1.11326 0 255 255
-19.3274 -26.9518 1.11364 0 255 255
-19.3282 -26.9526 1.11394 0 255 255
-19.3291 -26.9534 1.11417 0 255 255
-19.33 -26.9542 1.11432 0 255 255
-19.3308 -26.955 1.11441 0 255 255
-19.3316 -26.9558 1.11444 0 255 255
-19.3324 -26.9565 1.1144 0 255 255
-19.3332 -26.9573 1.11431 0 255 255
-19.3339 -26.958 1.11416 0 255 255
-19.3346 -26.9588 1.11396 0 255 255
-19.3352 -26.9595 1.11371 0 255 255
-19.3358 -26.9602 1.11341 0 255 255
-19.3363 -26.9609 1.11305 0 255 255
-19.3368 -26.9615 1.11265 0 255 255
-19.3372 -26.9621 1.11219 0 255 255
-19.3376 -26.9627 1.11169 0 255 255
-19.338 -26.9633 1.11114 0 255 255
-19.3382 -26.9638 1.11055 0 255 255
-19.3385 -26.9643 1.10993 0 255 255
-19.3387 -26.9648 1.10925 0 255 255
-19.3388 -26.9652 1.10854 0 255 255
-19.3389 -26.9655 1.10779 0 255 255
-19.3389 -26.9659 1.107 0 255 255
-19.3389 -26.9661 1.10619 0 255 255
-19.3388 -26.9664 1.10533 0 255 255
-19.3387 -26.9666 1.10446 0 255 255
-19.3386 -26.9667 1.10356 0 255 255
-19.3384 -26.9668 1.10264 0 255 255
-19.3382 -26.9668 1.1017 0 255 255
-19.338 -26.9668 1.10075 0 255 255
-19.3375 -26.9667 1.09885 0 255 255
-19.3373 -26.9665 1.09789 0 255 255
-19.3371 -26.9663 1.09694 0 255 255
-19.3369 -26.966 1.096 0 255 255
-19.3367 -26.9657 1.09506 0 255 255
-19.3365 -26.9654 1.09415 0 255 255
-19.3364 -26.9651 1.09325 0 255 255
-19.3363 -26.9647 1.09238 0 255 255
-19.3362 -26.9643 1.09153 0 255 255
-19.3361 -26.9638 1.09071 0 255 255
-19.336 -26.9634 1.08994 0 255 255
-19.3359 -26.9624 1.08847 0 255 255
-19.3358 -26.9619 1.08784 0 255 255
-19.3357 -26.9614 1.08728 0 255 255
-19.3356 -26.9608 1.08679 0 255 255
-19.3355 -26.9602 1.08638 0 255 255
-19.3353 -26.9595 1.08606 0 255 255
-19.3351 -26.9587 1.08582 0 255 255
-19.3349 -26.9579 1.08565 0 255 255
-19.3348 -26.9571 1.08556 0 255 255
-19.3346 -26.9562 1.08553 0 255 255
-19.3345 -26.9552 1.08557 0 255 255
-19.3344 -26.9542 1.08566 0 255 255
-19.3342 -26.9532 1.08579 0 255 255
-19.3341 -26.9522 1.08596 0 255 255
-19.3338 -26.9512 1.08619 0 255 255
-19.3336 -26.9502 1.08647 0 255 255
-19.3332 -26.9493 1.08682 0 255 255
-19.3328 -26.9484 1.08723 0 255 255
-19.3322 -26.9475 1.08769 0 255 255
-19.3316 -26.9467 1.08821 0 255 255
-19.3309 -26.9461 1.08878 0 255 255
-19.3301 -26.9455 1.08938 0 255 255
-19.3293 -26.945 1.09001 0 255 255
-19.3283 -26.9446 1.09066 0 255 255
-19.3274 -26.9442 1.09133 0 255 255
-19.3264 -26.944 1.09201 0 255 255
-19.3253 -26.9437 1.09269 0 255 255
-19.3243 -26.9435 1.09337 0 255 255
-19.3232 -26.9434 1.09403 0 255 255
-19.3221 -26.9433 1.09469 0 255 255
-19.321 -26.9433 1.09533 0 255 255
-19.32 -26.9432 1.09598 0 255 255
-19.3189 -26.9433 1.09663 0 255 255
-19.3179 -26.9433 1.09732 0 255 255
-19.3168 -26.9434 1.09804 0 255 255
-19.3158 -26.9436 1.0988 0 255 255
-19.3148 -26.9437 1.09963 0 255 255
-19.3137 -26.9438 1.10052 0 255 255
-19.3126 -26.944 1.10148 0 255 255
-19.3115 -26.9442 1.10251 0 255 255
-19.3104 -26.9443 1.1036 0 255 255
-19.3092 -26.9445 1.10474 0 255 255
-19.308 -26.9447 1.10593 0 255 255
-19.3068 -26.9449 1.10715 0 255 255
-19.3055 -26.9451 1.10839 0 255 255
-19.3042 -26.9453 1.10965 0 255 255
-19.3029 -26.9456 1.11089 0 255 255
-19.3015 -26.9458 1.11213 0 255 255
-19.3002 -26.9461 1.11334 0 255 255
-19.2988 -26.9464 1.11452 0 255 255
-19.2974 -26.9466 1.11566 0 255 255
-19.296 -26.9469 1.11675 0 255 255
-19.2946 -26.9473 1.1178 0 255 255
-19.2932 -26.9476 1.1188 0 255 255
-19.2917 -26.9479 1.11974 0 255 255
-19.2903 -26.9483 1.12062 0 255 255
-19.2889 -26.9486 1.12146 0 255 255
-19.2875 -26.949 1.12223 0 255 255
-19.2861 -26.9494 1.12294 0 255 255
-19.2847 -26.9498 1.1236 0 255 255
-19.2834 -26.9502 1.1242 0 255 255
-19.282 -26.9506 1.12475 0 255 255
-19.2806 -26.9511 1.12524 0 255 255
-19.2793 -26.9515 1.12567 0 255 255
-19.278 -26.9519 1.12606 0 255 255
-19.2766 -26.9524 1.12638 0 255 255
-19.2753 -26.9528 1.12664 0 255 255
-19.274 -26.9533 1.12685 0 255 255
-19.2727 -26.9538 1.12699 0 255 255
-19.2714 -26.9542 1.12707 0 255 255
-19.2701 -26.9547 1.12709 0 255 255
-19.2688 -26.9552 1.12705 0 255 255
-19.2676 -26.9557 1.12695 0 255 255
-19.2664 -26.9562 1.1268 0 255 255
-19.2651 -26.9567 1.1266 0 255 255
-19.264 -26.9572 1.12636 0 255 255
-19.2628 -26.9576 1.12606 0 255 255
-19.2617 -26.9581 1.12572 0 255 255
-19.2606 -26.9586 1.12535 0 255 255
-19.2595 -26.9591 1.12494 0 255 255
-19.2585 -26.9596 1.12449 0 255 255
-19.2575 -26.96 1.12401 0 255 255
-19.2565 -26.9604 1.12351 0 255 255
-19.2556 -26.9608 1.12298 0 255 255
-19.2546 -26.9612 1.12243 0 255 255
-19.2537 -26.9616 1.12185 0 255 255
-19.2528 -26.9619 1.12123 0 255 255
-19.2519 -26.9622 1.1206 0 255 255
-19.251 -26.9625 1.11993 0 255 255
-19.2502 -26.9627 1.11924 0 255 255
-19.2493 -26.963 1.11852 0 255 255
-19.2484 -26.9632 1.11778 0 255 255
-19.2475 -26.9633 1.11701 0 255 255
-19.2466 -26.9635 1.11624 0 255 255
-19.2458 -26.9636 1.11544 0 255 255
-19.2449 -26.9637 1.11464 0 255 255
-19.244 -26.9638 1.11384 0 255 255
-19.2431 -26.9638 1.11303 0 255 255
-19.2422 -26.9638 1.11223 0 255 255
-19.2412 -26.9638 1.11145 0 255 255
-19.2403 -26.9639 1.11069 0 255 255
-19.2394 -26.9638 1.10996 0 255 255
-19.2384 -26.9638 1.10927 0 255 255
-19.2374 -26.9638 1.10862 0 255 255
-19.2364 -26.9637 1.10801 0 255 255
-19.2355 -26.9637 1.10748 0 255 255
-19.2345 -26.9635 1.107 0 255 255
-19.2335 -26.9634 1.10658 0 255 255
-19.2326 -26.9631 1.10622 0 255 255
-19.2317 -26.9628 1.10592 0 255 255
-19.2307 -26.9624 1.10566 0 255 255
-19.2298 -26.962 1.10545 0 255 255
-19.2288 -26.9615 1.10526 0 255 255
-19.2278 -26.9609 1.10511 0 255 255
-19.2268 -26.9603 1.10498 0 255 255
-19.2257 -26.9596 1.10487 0 255 255
-19.2246 -26.959 1.1048 0 255 255
-19.2235 -26.9583 1.10476 0 255 255
-19.2223 -26.9576 1.10478 0 255 255
-19.2211 -26.957 1.10487 0 255 255
-19.2199 -26.9564 1.10502 0 255 255
-19.2187 -26.9559 1.10526 0 255 255
-19.2174 -26.9555 1.10558 0 255 255
-19.2161 -26.9551 1.10598 0 255 255
-19.2148 -26.9549 1.10646 0 255 255
-19.2134 -26.9547 1.10699 0 255 255
-19.2121 -26.9547 1.10758 0 255 255
-19.2108 -26.9548 1.10819 0 255 255
-19.2095 -26.955 1.10882 0 255 255
-19.2082 -26.9553 1.10945 0 255 255
-19.207 -26.9556 1.11008 0 255 255
-19.2057 -26.9561 1.11071 0 255 255
-19.2045 -26.9565 1.11136 0 255 255
-19.2034 -26.957 1.11202 0 255 255
-19.2022 -26.9576 1.1127 0 255 255
-19.2011 -26.9582 1.11342 0 255 255
-19.2 -26.9588 1.11419 0 255 255
-19.1989 -26.9594 1.11503 0 255 255
-19.1978 -26.9601 1.11591 0 255 255
-19.1967 -26.9609 1.11686 0 255 255
-19.1946 -26.9625 1.11888 0 255 255
-19.1935 -26.9634 1.12001 0 255 255
-19.1924 -26.9643 1.12118 0 255 255
-19.1912 -26.9652 1.12239 0 255 255
-19.19 -26.9662 1.12363 0 255 255
-19.1888 -26.9672 1.12487 0 255 255
-19.1875 -26.9682 1.12613 0 255 255
-19.1862 -26.9692 1.12738 0 255 255
-19.1848 -26.9702 1.12861 0 255 255
-19.1834 -26.9712 1.12983 0 255 255
-19.182 -26.9722 1.131 0 255 255
-19.1805 -26.9732 1.13213 0 255 255
-19.179 -26.9743 1.13322 0 255 255
-19.1775 -26.9753 1.13424 0 255 255
-19.1759 -26.9763 1.1352 0 255 255
-19.1744 -26.9774 1.13608 0 255 255
-19.1728 -26.9784 1.13689 0 255 255
-19.1712 -26.9795 1.13763 0 255 255
-19.1697 -26.9806 1.13829 0 255 255
-19.1681 -26.9817 1.13888 0 255 255
-19.1665 -26.9828 1.1394 0 255 255
-19.165 -26.9839 1.13985 0 255 255
-19.1634 -26.9851 1.14023 0 255 255
-19.1618 -26.9862 1.14056 0 255 255
-19.1603 -26.9874 1.14082 0 255 255
-19.1587 -26.9886 1.14104 0 255 255
-19.1571 -26.9897 1.14121 0 255 255
-19.1555 -26.9909 1.14134 0 255 255
-19.1539 -26.9921 1.14144 0 255 255
-19.1522 -26.9933 1.1415 0 255 255
-19.1505 -26.9945 1.14153 0 255 255
-19.1488 -26.9958 1.14152 0 255 255
-19.147 -26.997 1.14148 0 255 255
-19.1452 -26.9983 1.14139 0 255 255
-19.1434 -26.9996 1.14127 0 255 255
-19.1415 -27.0008 1.14111 0 255 255
-19.1395 -27.0021 1.14091 0 255 255
-19.1376 -27.0034 1.14067 0 255 255
-19.1355 -27.0047 1.1404 0 255 255
-19.1335 -27.0059 1.14009 0 255 255
-19.1313 -27.0072 1.13975 0 255 255
-19.1291 -27.0085 1.13938 0 255 255
-19.1269 -27.0097 1.13898 0 255 255
-19.1246 -27.0109 1.13855 0 255 255
-19.1223 -27.0121 1.1381 0 255 255
-19.1199 -27.0133 1.13762 0 255 255
-19.1174 -27.0145 1.13713 0 255 255
-19.1149 -27.0156 1.13661 0 255 255
-19.1124 -27.0167 1.13608 0 255 255
-19.1098 -27.0178 1.13553 0 255 255
-19.1072 -27.0189 1.13496 0 255 255
-19.1046 -27.0199 1.13438 0 255 255
-19.1019 -27.021 1.13378 0 255 255
-19.0992 -27.022 1.13317 0 255 255
-19.0964 -27.0229 1.13254 0 255 255
-19.0936 -27.0239 1.1319 0 255 255
-19.0909 -27.0248 1.13123 0 255 255
-19.0881 -27.0257 1.13054 0 255 255
-19.0852 -27.0266 1.12983 0 255 255
-19.0824 -27.0275 1.1291 0 255 255
-19.0795 -27.0283 1.12835 0 255 255
-19.0767 -27.0291 1.12758 0 255 255
-19.0738 -27.0299 1.12682 0 255 255
-19.0709 -27.0307 1.12606 0 255 255
-19.068 -27.0314 1.12531 0 255 255
-19.0651 -27.0321 1.12459 0 255 255
-19.0621 -27.0328 1.12391 0 255 255
-19.0592 -27.0335 1.12328 0 255 255
-19.0562 -27.0341 1.1227 0 255 255
-19.0533 -27.0348 1.12217 0 255 255
-19.0502 -27.0354 1.1217 0 255 255
-19.0472 -27.036 1.12129 0 255 255
-19.0441 -27.0366 1.12093 0 255 255
-19.041 -27.0372 1.12064 0 255 255
-19.0378 -27.0378 1.1204 0 255 255
-19.0347 -27.0383 1.12021 0 255 255
-19.0314 -27.0388 1.12008 0 255 255
-19.0281 -27.0392 1.11999 0 255 255
-19.0249 -27.0396 1.11995 0 255 255
-19.0215 -27.04 1.11996 0 255 255
-19.0181 -27.0403 1.12002 0 255 255
-19.0147 -27.0407 1.12014 0 255 255
-19.0077 -27.0414 1.1205 0 255 255
-19.0041 -27.0418 1.12082 0 255 255
-19.0004 -27.0423 1.12124 0 255 255
-18.9967 -27.0428 1.12175 0 255 255
-18.9928 -27.0434 1.12235 0 255 255
-18.989 -27.0441 1.12302 0 255 255
-18.985 -27.0448 1.12377 0 255 255
-18.9811 -27.0457 1.12456 0 255 255
-18.9771 -27.0467 1.12541 0 255 255
-18.973 -27.0478 1.1263 0 255 255
-18.9689 -27.049 1.12723 0 255 255
-18.9648 -27.0502 1.12816 0 255 255
-18.9607 -27.0515 1.12909 0 255 255
-18.9566 -27.0528 1.13002 0 255 255
-18.9524 -27.0542 1.13091 0 255 255
-18.9483 -27.0556 1.13176 0 255 255
-18.9441 -27.0571 1.13257 0 255 255
-18.94 -27.0586 1.13334 0 255 255
-18.9359 -27.0601 1.13405 0 255 255
-18.9319 -27.0617 1.13472 0 255 255
-18.9278 -27.0632 1.13535 0 255 255
-18.9238 -27.0648 1.13595 0 255 255
-18.9199 -27.0664 1.13652 0 255 255
-18.916 -27.068 1.13708 0 255 255
-18.912 -27.0696 1.13763 0 255 255
-18.9081 -27.0712 1.13818 0 255 255
-18.9042 -27.0728 1.13875 0 255 255
-18.9003 -27.0745 1.13933 0 255 255
-18.8964 -27.0761 1.13994 0 255 255
-18.8924 -27.0778 1.14058 0 255 255
-18.8884 -27.0795 1.14125 0 255 255
-18.8844 -27.0813 1.14195 0 255 255
-18.8804 -27.0831 1.14267 0 255 255
-18.8764 -27.0849 1.14341 0 255 255
-18.8723 -27.0868 1.14416 0 255 255
-18.8682 -27.0887 1.14492 0 255 255
-18.864 -27.0907 1.14569 0 255 255
-18.8598 -27.0928 1.14645 0 255 255
-18.8556 -27.0948 1.14721 0 255 255
-18.8513 -27.0969 1.14796 0 255 255
-18.8471 -27.0991 1.14869 0 255 255
-18.8428 -27.1013 1.1494 0 255 255
-18.8384 -27.1035 1.15008 0 255 255
-18.8341 -27.1057 1.15073 0 255 255
-18.8297 -27.108 1.15135 0 255 255
-18.8253 -27.1103 1.15194 0 255 255
-18.8122 -27.1172 1.15357 0 255 255
-18.8078 -27.1195 1.15399 0 255 255
-18.8034 -27.1219 1.15438 0 255 255
-18.799 -27.1242 1.15473 0 255 255
-18.7947 -27.1266 1.15505 0 255 255
-18.7903 -27.1289 1.15532 0 255 255
-18.786 -27.1313 1.15556 0 255 255
-18.7818 -27.1336 1.15576 0 255 255
-18.7776 -27.136 1.15593 0 255 255
-18.7733 -27.1383 1.15606 0 255 255
-18.7691 -27.1406 1.15615 0 255 255
-18.765 -27.143 1.15621 0 255 255
-18.7609 -27.1453 1.15624 0 255 255
-18.7568 -27.1476 1.15624 0 255 255
-18.7527 -27.1499 1.15622 0 255 255
-18.7486 -27.1522 1.15617 0 255 255
-18.7446 -27.1545 1.15609 0 255 255
-18.7405 -27.1568 1.15599 0 255 255
-18.7365 -27.1591 1.15586 0 255 255
-18.7324 -27.1613 1.15571 0 255 255
-18.7284 -27.1636 1.15552 0 255 255
-18.7244 -27.1658 1.1553 0 255 255
-18.7203 -27.168 1.15505 0 255 255
-18.7163 -27.1702 1.15476 0 255 255
-18.7123 -27.1723 1.15444 0 255 255
-18.7082 -27.1744 1.15408 0 255 255
-18.7042 -27.1765 1.1537 0 255 255
-18.7001 -27.1785 1.15328 0 255 255
-18.6961 -27.1806 1.15282 0 255 255
-18.692 -27.1826 1.15233 0 255 255
-18.688 -27.1845 1.15181 0 255 255
-18.684 -27.1865 1.15127 0 255 255
-18.6799 -27.1884 1.15071 0 255 255
-18.6759 -27.1903 1.15014 0 255 255
-18.6718 -27.1921 1.14957 0 255 255
-18.6678 -27.1939 1.149 0 255 255
-18.6638 -27.1957 1.14845 0 255 255
-18.6598 -27.1974 1.14792 0 255 255
-18.6559 -27.1991 1.14742 0 255 255
-18.6519 -27.2008 1.14695 0 255 255
-18.648 -27.2025 1.14653 0 255 255
-18.644 -27.2041 1.14616 0 255 255
-18.6401 -27.2058 1.14585 0 255 255
-18.6361 -27.2074 1.14559 0 255 255
-18.6321 -27.209 1.14538 0 255 255
-18.6281 -27.2106 1.14521 0 255 255
-18.624 -27.2123 1.14509 0 255 255
-18.6199 -27.2139 1.14499 0 255 255
-18.6158 -27.2155 1.14492 0 255 255
-18.6116 -27.217 1.14487 0 255 255
-18.6075 -27.2186 1.14484 0 255 255
-18.6032 -27.2201 1.14482 0 255 255
-18.5989 -27.2216 1.14483 0 255 255
-18.5946 -27.223 1.14484 0 255 255
-18.5902 -27.2244 1.14488 0 255 255
-18.5857 -27.2258 1.14493 0 255 255
-18.5811 -27.2271 1.14501 0 255 255
-18.5765 -27.2284 1.14513 0 255 255
-18.5718 -27.2298 1.14528 0 255 255
-18.567 -27.2311 1.14547 0 255 255
-18.5622 -27.2324 1.14571 0 255 255
-18.5573 -27.2338 1.14601 0 255 255
-18.5525 -27.2352 1.14638 0 255 255
-18.5476 -27.2366 1.14681 0 255 255
-18.5427 -27.2381 1.14732 0 255 255
-18.5379 -27.2396 1.14789 0 255 255
-18.5331 -27.2412 1.14851 0 255 255
-18.5283 -27.2429 1.14918 0 255 255
-18.5236 -27.2446 1.14988 0 255 255
-18.5189 -27.2465 1.1506 0 255 255
-18.5143 -27.2484 1.15132 0 255 255
-18.5098 -27.2505 1.15204 0 255 255
-18.5054 -27.2525 1.15274 0 255 255
-18.5011 -27.2546 1.15341 0 255 255
-18.4968 -27.2568 1.15406 0 255 255
-18.4927 -27.2589 1.15468 0 255 255
-18.4887 -27.261 1.15528 0 255 255
-18.4847 -27.2632 1.15586 0 255 255
-18.4808 -27.2653 1.15644 0 255 255
-18.4732 -27.2695 1.1576 0 255 255
-18.4694 -27.2716 1.15821 0 255 255
-18.4657 -27.2737 1.15886 0 255 255
-18.462 -27.2758 1.15955 0 255 255
-18.4584 -27.2779 1.16029 0 255 255
-18.4547 -27.2801 1.16108 0 255 255
-18.4511 -27.2822 1.16191 0 255 255
-18.4475 -27.2844 1.16279 0 255 255
-18.4439 -27.2866 1.1637 0 255 255
-18.4403 -27.2889 1.16464 0 255 255
-18.4367 -27.2912 1.1656 0 255 255
-18.4331 -27.2935 1.16657 0 255 255
-18.4294 -27.2958 1.16753 0 255 255
-18.4258 -27.2981 1.16848 0 255 255
-18.4221 -27.3004 1.1694 0 255 255
-18.4185 -27.3028 1.17029 0 255 255
-18.4148 -27.3052 1.17113 0 255 255
-18.4111 -27.3076 1.17192 0 255 255
-18.4075 -27.31 1.17266 0 255 255
-18.4038 -27.3124 1.17333 0 255 255
-18.4001 -27.3148 1.17394 0 255 255
-18.3964 -27.3172 1.17448 0 255 255
-18.3927 -27.3197 1.17495 0 255 255
-18.389 -27.3221 1.17535 0 255 255
-18.3853 -27.3246 1.1757 0 255 255
-18.3816 -27.327 1.17599 0 255 255
-18.378 -27.3294 1.17623 0 255 255
-18.3743 -27.3319 1.17642 0 255 255
-18.3707 -27.3343 1.17657 0 255 255
-18.3671 -27.3368 1.17669 0 255 255
-18.3634 -27.3392 1.17678 0 255 255
-18.3597 -27.3417 1.17684 0 255 255
-18.3561 -27.3441 1.17687 0 255 255
-18.3524 -27.3466 1.17688 0 255 255
-18.3487 -27.3491 1.17687 0 255 255
-18.345 -27.3516 1.17683 0 255 255
-18.3413 -27.3541 1.17676 0 255 255
-18.3375 -27.3566 1.17666 0 255 255
-18.3338 -27.3591 1.17654 0 255 255
-18.3299 -27.3617 1.17639 0 255 255
-18.3261 -27.3643 1.1762 0 255 255
-18.3222 -27.3669 1.17599 0 255 255
-18.3183 -27.3695 1.17575 0 255 255
-18.3143 -27.3722 1.17548 0 255 255
-18.3103 -27.3748 1.17519 0 255 255
-18.3063 -27.3775 1.17486 0 255 255
-18.3022 -27.3802 1.17451 0 255 255
-18.2981 -27.3829 1.17414 0 255 255
