ply
format ascii 1.0
element vertex 1286
property float x
property float y
property float z
property uchar red
property uchar green
property uchar blue
element face 0
property list uchar int vertex_indices
end_header
-22.4718 -6.56576 -0.011569 0 200 0
-22.476 -6.56844 -0.0117296 0 200 0
-22.4803 -6.57112 -0.0118903 0 200 0
-22.4845 -6.5738 -0.012051 0 200 0
-22.4887 -6.57648 -0.0122117 0 200 0
-22.4929 -6.57916 -0.0123724 0 200 0
-22.4971 -6.58184 -0.012533 0 200 0
-22.5014 -6.58451 -0.0126937 0 200 0
-22.5056 -6.58719 -0.0128544 0 200 0
-22.5098 -6.58987 -0.0130151 0 200 0
-22.514 -6.59255 -0.0131758 0 200 0
-22.5182 -6.59523 -0.0133364 0 200 0
-22.5224 -6.59791 -0.0134971 0 200 0
-22.5267 -6.60059 -0.0136578 0 200 0
-22.5309 -6.60327 -0.0138185 0 200 0
-22.5351 -6.60595 -0.0139792 0 200 0
-22.5393 -6.60863 -0.0141398 0 200 0
-22.5435 -6.61131 -0.0143005 0 200 0
-22.5478 -6.61399 -0.0144612 0 200 0
-22.552 -6.61666 -0.0146219 0 200 0
-22.5562 -6.61934 -0.0147826 0 200 0
-22.5604 -6.62202 -0.0149432 0 200 0
-22.5646 -6.6247 -0.0151039 0 200 0
-22.5689 -6.62738 -0.0152646 0 200 0
-22.5731 -6.63006 -0.0154253 0 200 0
-22.5773 -6.63274 -0.015586 0 200 0
-22.5815 -6.63542 -0.0157466 0 200 0
-22.5857 -6.6381 -0.0159073 0 200 0
-22.8628 -6.83029 0 0 200 0
-22.8676 -6.8318 -0.000388408 0 200 0
-22.8723 -6.83331 -0.000776816 0 200 0
-22.8771 -6.83482 -0.00116522 0 200 0
-22.8818 -6.83633 -0.00155363 0 200 0
-22.8866 -6.83784 -0.00194204 0 200 0
-22.8913 -6.83935 -0.00233045 0 200 0
-22.8961 -6.84086 -0.00271886 0 200 0
-22.9008 -6.84237 -0.00310726 0 200 0
-22.9056 -6.84388 -0.00349567 0 200 0
-22.9103 -6.8454 -0.00388408 0 200 0
-22.9151 -6.84691 -0.00427249 0 200 0
-22.9198 -6.84842 -0.0046609 0 200 0
-22.9246 -6.84993 -0.0050493 0 200 0
-22.9293 -6.85144 -0.00543771 0 200 0
-22.9341 -6.85295 -0.00582612 0 200 0
-22.9388 -6.85446 -0.00621453 0 200 0
-22.9436 -6.85597 -0.00660294 0 200 0
-22.9483 -6.85748 -0.00699134 0 200 0
-22.9531 -6.85899 -0.00737975 0 200 0
-22.9578 -6.8605 -0.00776816 0 200 0
-22.9626 -6.86201 -0.00815657 0 200 0
-22.9673 -6.86352 -0.00854498 0 200 0
-22.9721 -6.86504 -0.00893338 0 200 0
-22.9768 -6.86655 -0.00932179 0 200 0
-22.9816 -6.86806 -0.0097102 0 200 0
-22.9863 -6.86957 -0.0100986 0 200 0
-22.9911 -6.87108 -0.010487 0 200 0
-22.9958 -6.87259 -0.0108754 0 200 0
-23.0006 -6.8741 -0.0112638 0 200 0
-23.0053 -6.87561 -0.0116522 0 200 0
-23.0101 -6.87712 -0.0120406 0 200 0
-23.0148 -6.87863 -0.0124291 0 200 0
-23.0196 -6.88014 -0.0128175 0 200 0
-23.0243 -6.88165 -0.0132059 0 200 0
-23.0291 -6.88316 -0.0135943 0 200 0
-23.0338 -6.88467 -0.0139827 0 200 0
-23.0386 -6.88619 -0.0143711 0 200 0
-23.0433 -6.8877 -0.0147595 0 200 0
-23.0481 -6.88921 -0.0151479 0 200 0
-23.0528 -6.89072 -0.0155363 0 200 0
-23.0576 -6.89223 -0.0159247 0 200 0
-23.0623 -6.89374 -0.0163131 0 200 0
-23.0671 -6.89525 -0.0167015 0 200 0
-23.0718 -6.89676 -0.01709 0 200 0
-23.0766 -6.89827 -0.0174784 0 200 0
-23.0813 -6.89978 -0.0178668 0 200 0
-23.0861 -6.90129 -0.0182552 0 200 0
-23.0908 -6.9028 -0.0186436 0 200 0
-23.0956 -6.90431 -0.019032 0 200 0
-23.1003 -6.90582 -0.0194204 0 200 0
-23.1051 -6.90733 -0.0198088 0 200 0
-23.1098 -6.90885 -0.0201972 0 200 0
-23.1146 -6.91036 -0.0205856 0 200 0
-23.1193 -6.91187 -0.020974 0 200 0
-23.1241 -6.91338 -0.0213624 0 200 0
-23.1288 -6.91489 -0.0217508 0 200 0
-23.1336 -6.9164 -0.0221393 0 200 0
-23.1383 -6.91791 -0.0225277 0 200 0
-23.1431 -6.91942 -0.0229161 0 200 0
-23.1478 -6.92093 -0.0233045 0 200 0
-23.1526 -6.92244 -0.0236929 0 200 0
-23.1573 -6.92395 -0.0240813 0 200 0
-23.1621 -6.92546 -0.0244697 0 200 0
-23.1668 -6.92697 -0.0248581 0 200 0
-23.1716 -6.92848 -0.0252465 0 200 0
-23.1763 -6.93 -0.0256349 0 200 0
-23.1811 -6.93151 -0.0260233 0 200 0
-23.1858 -6.93302 -0.0264117 0 200 0
-23.1906 -6.93453 -0.0268002 0 200 0
-23.1953 -6.93604 -0.0271886 0 200 0
-23.2001 -6.93755 -0.027577 0 200 0
-23.2048 -6.93906 -0.0279654 0 200 0
-23.2096 -6.94057 -0.0283538 0 200 0
-23.2143 -6.94208 -0.0287422 0 200 0
-23.2191 -6.94359 -0.0291306 0 200 0
-23.2239 -6.9451 -0.029519 0 200 0
-23.2286 -6.94661 -0.0299074 0 200 0
-23.2334 -6.94812 -0.0302958 0 200 0
-23.2381 -6.94964 -0.0306842 0 200 0
-23.2429 -6.95115 -0.0310726 0 200 0
-23.2476 -6.95266 -0.031461 0 200 0
-23.2524 -6.95417 -0.0318495 0 200 0
-23.2571 -6.95568 -0.0322379 0 200 0
-23.2619 -6.95719 -0.0326263 0 200 0
-23.2666 -6.9587 -0.0330147 0 200 0
-23.2714 -6.96021 -0.0334031 0 200 0
-23.2761 -6.96172 -0.0337915 0 200 0
-23.2809 -6.96323 -0.0341799 0 200 0
-23.2856 -6.96474 -0.0345683 0 200 0
-23.2904 -6.96625 -0.0349567 0 200 0
-23.2951 -6.96776 -0.0353451 0 200 0
-23.2999 -6.96927 -0.0357335 0 200 0
-23.3046 -6.97079 -0.0361219 0 200 0
-23.3094 -6.9723 -0.0365104 0 200 0
-23.3141 -6.97381 -0.0368988 0 200 0
-23.3189 -6.97532 -0.0372872 0 200 0
-23.3236 -6.97683 -0.0376756 0 200 0
-23.3284 -6.97834 -0.038064 0 200 0
-23.3331 -6.97985 -0.0384524 0 200 0
-23.9184 -7.34916 0 0 200 0
-23.9232 -7.34778 -0.000334519 0 200 0
-23.928 -7.3464 -0.000669038 0 200 0
-23.9328 -7.34502 -0.00100356 0 200 0
-23.9376 -7.34364 -0.00133808 0 200 0
-23.9424 -7.34226 -0.0016726 0 200 0
-23.9471 -7.34088 -0.00200711 0 200 0
-23.9519 -7.3395 -0.00234163 0 200 0
-23.9567 -7.33812 -0.00267615 0 200 0
-23.9615 -7.33673 -0.00301067 0 200 0
-23.9663 -7.33535 -0.00334519 0 200 0
-23.9711 -7.33397 -0.00367971 0 200 0
-23.9759 -7.33259 -0.00401423 0 200 0
-23.9807 -7.33121 -0.00434875 0 200 0
-23.9855 -7.32983 -0.00468327 0 200 0
-23.9903 -7.32845 -0.00501779 0 200 0
-23.9951 -7.32707 -0.00535231 0 200 0
-23.9999 -7.32569 -0.00568683 0 200 0
-24.0047 -7.32431 -0.00602134 0 200 0
-24.0095 -7.32293 -0.00635586 0 200 0
-24.0143 -7.32155 -0.00669038 0 200 0
-24.0191 -7.32016 -0.0070249 0 200 0
-24.0239 -7.31878 -0.00735942 0 200 0
-24.0286 -7.3174 -0.00769394 0 200 0
-24.0334 -7.31602 -0.00802846 0 200 0
-24.0382 -7.31464 -0.00836298 0 200 0
-24.043 -7.31326 -0.0086975 0 200 0
-24.0478 -7.31188 -0.00903202 0 200 0
-24.0526 -7.3105 -0.00936654 0 200 0
-24.0574 -7.30912 -0.00970105 0 200 0
-24.0622 -7.30774 -0.0100356 0 200 0
-24.067 -7.30635 -0.0103701 0 200 0
-24.0718 -7.30497 -0.0107046 0 200 0
-24.0766 -7.30359 -0.0110391 0 200 0
-24.0814 -7.30221 -0.0113737 0 200 0
-24.0862 -7.30083 -0.0117082 0 200 0
-24.091 -7.29945 -0.0120427 0 200 0
-24.0958 -7.29807 -0.0123772 0 200 0
-24.1006 -7.29669 -0.0127117 0 200 0
-24.1053 -7.29531 -0.0130462 0 200 0
-24.1101 -7.29393 -0.0133808 0 200 0
-24.1149 -7.29255 -0.0137153 0 200 0
-24.1197 -7.29117 -0.0140498 0 200 0
-24.1245 -7.28978 -0.0143843 0 200 0
-24.1293 -7.2884 -0.0147188 0 200 0
-24.1341 -7.28702 -0.0150534 0 200 0
-24.1389 -7.28564 -0.0153879 0 200 0
-24.1437 -7.28426 -0.0157224 0 200 0
-24.1485 -7.28288 -0.0160569 0 200 0
-24.1533 -7.2815 -0.0163914 0 200 0
-24.1581 -7.28012 -0.016726 0 200 0
-24.1629 -7.27874 -0.0170605 0 200 0
-24.1677 -7.27736 -0.017395 0 200 0
-24.1725 -7.27598 -0.0177295 0 200 0
-24.1773 -7.27459 -0.018064 0 200 0
-24.1821 -7.27321 -0.0183986 0 200 0
-24.1868 -7.27183 -0.0187331 0 200 0
-24.1916 -7.27045 -0.0190676 0 200 0
-24.1964 -7.26907 -0.0194021 0 200 0
-24.2012 -7.26769 -0.0197366 0 200 0
-24.206 -7.26631 -0.0200711 0 200 0
-24.2108 -7.26493 -0.0204057 0 200 0
-24.2156 -7.26355 -0.0207402 0 200 0
-24.2204 -7.26217 -0.0210747 0 200 0
-24.2252 -7.26079 -0.0214092 0 200 0
-24.23 -7.25941 -0.0217437 0 200 0
-24.2348 -7.25802 -0.0220783 0 200 0
-24.2396 -7.25664 -0.0224128 0 200 0
-24.2444 -7.25526 -0.0227473 0 200 0
-24.2492 -7.25388 -0.0230818 0 200 0
-24.254 -7.2525 -0.0234163 0 200 0
-24.2588 -7.25112 -0.0237509 0 200 0
-24.2635 -7.24974 -0.0240854 0 200 0
-24.2683 -7.24836 -0.0244199 0 200 0
-24.2731 -7.24698 -0.0247544 0 200 0
-24.2779 -7.2456 -0.0250889 0 200 0
-24.2827 -7.24422 -0.0254235 0 200 0
-24.2875 -7.24283 -0.025758 0 200 0
-24.2923 -7.24145 -0.0260925 0 200 0
-24.2971 -7.24007 -0.026427 0 200 0
-24.3019 -7.23869 -0.0267615 0 200 0
-24.3067 -7.23731 -0.027096 0 200 0
-24.3115 -7.23593 -0.0274306 0 200 0
-24.3163 -7.23455 -0.0277651 0 200 0
-24.3211 -7.23317 -0.0280996 0 200 0
-24.3259 -7.23179 -0.0284341 0 200 0
-24.3307 -7.23041 -0.0287686 0 200 0
-24.3355 -7.22903 -0.0291032 0 200 0
-24.3402 -7.22764 -0.0294377 0 200 0
-24.345 -7.22626 -0.0297722 0 200 0
-24.3498 -7.22488 -0.0301067 0 200 0
-24.3546 -7.2235 -0.0304412 0 200 0
-24.3594 -7.22212 -0.0307758 0 200 0
-24.3642 -7.22074 -0.0311103 0 200 0
-24.369 -7.21936 -0.0314448 0 200 0
-24.3738 -7.21798 -0.0317793 0 200 0
-24.3786 -7.2166 -0.0321138 0 200 0
-24.3834 -7.21522 -0.0324484 0 200 0
-24.3882 -7.21384 -0.0327829 0 200 0
-24.393 -7.21245 -0.0331174 0 200 0
-25.0351 -7.75018 0 0 200 0
-25.0396 -7.74801 -0.000183001 0 200 0
-25.0441 -7.74585 -0.000366001 0 200 0
-25.0486 -7.74368 -0.000549002 0 200 0
-25.0531 -7.74151 -0.000732002 0 200 0
-25.0576 -7.73934 -0.000915003 0 200 0
-25.0621 -7.73717 -0.001098 0 200 0
-25.0666 -7.735 -0.001281 0 200 0
-25.0711 -7.73283 -0.001464 0 200 0
-25.0756 -7.73066 -0.00164701 0 200 0
-25.0801 -7.72849 -0.00183001 0 200 0
-25.0846 -7.72632 -0.00201301 0 200 0
-25.0891 -7.72415 -0.00219601 0 200 0
-25.0936 -7.72198 -0.00237901 0 200 0
-25.0981 -7.71981 -0.00256201 0 200 0
-25.1026 -7.71764 -0.00274501 0 200 0
-25.1071 -7.71547 -0.00292801 0 200 0
-25.1116 -7.7133 -0.00311101 0 200 0
-25.1161 -7.71113 -0.00329401 0 200 0
-25.1206 -7.70896 -0.00347701 0 200 0
-25.1251 -7.70679 -0.00366001 0 200 0
-25.1296 -7.70462 -0.00384301 0 200 0
-25.1341 -7.70246 -0.00402601 0 200 0
-25.1386 -7.70029 -0.00420901 0 200 0
-25.1431 -7.69812 -0.00439201 0 200 0
-25.1476 -7.69595 -0.00457502 0 200 0
-25.1521 -7.69378 -0.00475802 0 200 0
-25.1566 -7.69161 -0.00494102 0 200 0
-25.1611 -7.68944 -0.00512402 0 200 0
-25.1656 -7.68727 -0.00530702 0 200 0
-25.1701 -7.6851 -0.00549002 0 200 0
-25.1746 -7.68293 -0.00567302 0 200 0
-25.1791 -7.68076 -0.00585602 0 200 0
-25.1836 -7.67859 -0.00603902 0 200 0
-25.1881 -7.67642 -0.00622202 0 200 0
-25.1926 -7.67425 -0.00640502 0 200 0
-25.1971 -7.67208 -0.00658802 0 200 0
-25.2016 -7.66991 -0.00677102 0 200 0
-25.2061 -7.66774 -0.00695402 0 200 0
-25.2106 -7.66557 -0.00713702 0 200 0
-25.2151 -7.6634 -0.00732002 0 200 0
-25.2196 -7.66123 -0.00750303 0 200 0
-25.2241 -7.65907 -0.00768603 0 200 0
-25.2286 -7.6569 -0.00786903 0 200 0
-25.2331 -7.65473 -0.00805203 0 200 0
-25.2376 -7.65256 -0.00823503 0 200 0
-25.2421 -7.65039 -0.00841803 0 200 0
-25.2466 -7.64822 -0.00860103 0 200 0
-25.2511 -7.64605 -0.00878403 0 200 0
-25.2556 -7.64388 -0.00896703 0 200 0
-25.2601 -7.64171 -0.00915003 0 200 0
-25.2646 -7.63954 -0.00933303 0 200 0
-25.2691 -7.63737 -0.00951603 0 200 0
-25.2736 -7.6352 -0.00969903 0 200 0
-25.2781 -7.63303 -0.00988203 0 200 0
-25.2826 -7.63086 -0.010065 0 200 0
-25.2871 -7.62869 -0.010248 0 200 0
-25.2916 -7.62652 -0.010431 0 200 0
-25.2961 -7.62435 -0.010614 0 200 0
-25.3006 -7.62218 -0.010797 0 200 0
-25.3051 -7.62001 -0.01098 0 200 0
-25.3096 -7.61785 -0.011163 0 200 0
-25.3141 -7.61568 -0.011346 0 200 0
-25.3186 -7.61351 -0.011529 0 200 0
-25.3232 -7.61134 -0.011712 0 200 0
-25.3277 -7.60917 -0.011895 0 200 0
-25.3322 -7.607 -0.012078 0 200 0
-25.3367 -7.60483 -0.012261 0 200 0
-25.3412 -7.60266 -0.012444 0 200 0
-25.3457 -7.60049 -0.012627 0 200 0
-25.3502 -7.59832 -0.01281 0 200 0
-25.3547 -7.59615 -0.012993 0 200 0
-25.3592 -7.59398 -0.013176 0 200 0
-25.3637 -7.59181 -0.013359 0 200 0
-25.3682 -7.58964 -0.013542 0 200 0
-25.3727 -7.58747 -0.013725 0 200 0
-25.3772 -7.5853 -0.013908 0 200 0
-25.3817 -7.58313 -0.014091 0 200 0
-25.3862 -7.58096 -0.014274 0 200 0
-25.3907 -7.57879 -0.014457 0 200 0
-25.3952 -7.57662 -0.01464 0 200 0
-25.3997 -7.57445 -0.014823 0 200 0
-25.4042 -7.57229 -0.0150061 0 200 0
-25.4087 -7.57012 -0.0151891 0 200 0
-25.4132 -7.56795 -0.0153721 0 200 0
-25.4177 -7.56578 -0.0155551 0 200 0
-25.4222 -7.56361 -0.0157381 0 200 0
-25.4267 -7.56144 -0.0159211 0 200 0
-25.4312 -7.55927 -0.0161041 0 200 0
-25.4357 -7.5571 -0.0162871 0 200 0
-25.4402 -7.55493 -0.0164701 0 200 0
-25.4447 -7.55276 -0.0166531 0 200 0
-25.4492 -7.55059 -0.0168361 0 200 0
-25.4537 -7.54842 -0.0170191 0 200 0
-25.4582 -7.54625 -0.0172021 0 200 0
-25.4627 -7.54408 -0.0173851 0 200 0
-25.4672 -7.54191 -0.0175681 0 200 0
-25.4717 -7.53974 -0.0177511 0 200 0
-25.4762 -7.53757 -0.0179341 0 200 0
-25.4807 -7.5354 -0.0181171 0 200 0
-26.228 -8.07157 0 0 200 0
-26.2324 -8.06912 -3.07489e-06 0 200 0
-26.2368 -8.06666 -6.14978e-06 0 200 0
-26.2411 -8.06421 -9.22468e-06 0 200 0
-26.2455 -8.06176 -1.22996e-05 0 200 0
-26.2498 -8.05931 -1.53745e-05 0 200 0
-26.2542 -8.05685 -1.84494e-05 0 200 0
-26.2585 -8.0544 -2.15242e-05 0 200 0
-26.2629 -8.05195 -2.45991e-05 0 200 0
-26.2673 -8.0495 -2.7674e-05 0 200 0
-26.2716 -8.04705 -3.07489e-05 0 200 0
-26.276 -8.04459 -3.38238e-05 0 200 0
-26.2803 -8.04214 -3.68987e-05 0 200 0
-26.2847 -8.03969 -3.99736e-05 0 200 0
-26.289 -8.03724 -4.30485e-05 0 200 0
-26.2934 -8.03478 -4.61234e-05 0 200 0
-26.2978 -8.03233 -4.91983e-05 0 200 0
-26.3021 -8.02988 -5.22732e-05 0 200 0
-26.3065 -8.02743 -5.53481e-05 0 200 0
-26.3108 -8.02498 -5.8423e-05 0 200 0
-26.3152 -8.02252 -6.14978e-05 0 200 0
-26.3195 -8.02007 -6.45727e-05 0 200 0
-26.3239 -8.01762 -6.76476e-05 0 200 0
-26.3283 -8.01517 -7.07225e-05 0 200 0
-26.3326 -8.01271 -7.37974e-05 0 200 0
-26.337 -8.01026 -7.68723e-05 0 200 0
-26.3413 -8.00781 -7.99472e-05 0 200 0
-26.3457 -8.00536 -8.30221e-05 0 200 0
-26.35 -8.00291 -8.6097e-05 0 200 0
-26.3544 -8.00045 -8.91719e-05 0 200 0
-26.3588 -7.998 -9.22468e-05 0 200 0
-26.3631 -7.99555 -9.53217e-05 0 200 0
-26.3675 -7.9931 -9.83966e-05 0 200 0
-26.3718 -7.99064 -0.000101471 0 200 0
-26.3762 -7.98819 -0.000104546 0 200 0
-26.3805 -7.98574 -0.000107621 0 200 0
-26.3849 -7.98329 -0.000110696 0 200 0
-26.3893 -7.98084 -0.000113771 0 200 0
-26.3936 -7.97838 -0.000116846 0 200 0
-26.398 -7.97593 -0.000119921 0 200 0
-26.4023 -7.97348 -0.000122996 0 200 0
-26.4067 -7.97103 -0.000126071 0 200 0
-26.411 -7.96858 -0.000129145 0 200 0
-26.4154 -7.96612 -0.00013222 0 200 0
-26.4198 -7.96367 -0.000135295 0 200 0
-26.4241 -7.96122 -0.00013837 0 200 0
-26.4285 -7.95877 -0.000141445 0 200 0
-26.4328 -7.95631 -0.00014452 0 200 0
-26.4372 -7.95386 -0.000147595 0 200 0
-26.4415 -7.95141 -0.00015067 0 200 0
-26.4459 -7.94896 -0.000153745 0 200 0
-26.4503 -7.94651 -0.00015682 0 200 0
-26.4546 -7.94405 -0.000159894 0 200 0
-26.459 -7.9416 -0.000162969 0 200 0
-26.4633 -7.93915 -0.000166044 0 200 0
-26.4677 -7.9367 -0.000169119 0 200 0
-26.4721 -7.93424 -0.000172194 0 200 0
-26.4764 -7.93179 -0.000175269 0 200 0
-26.4808 -7.92934 -0.000178344 0 200 0
-26.4851 -7.92689 -0.000181419 0 200 0
-26.4895 -7.92444 -0.000184494 0 200 0
-26.4938 -7.92198 -0.000187568 0 200 0
-26.4982 -7.91953 -0.000190643 0 200 0
-26.5026 -7.91708 -0.000193718 0 200 0
-26.5069 -7.91463 -0.000196793 0 200 0
-26.5113 -7.91217 -0.000199868 0 200 0
-26.5156 -7.90972 -0.000202943 0 200 0
-26.52 -7.90727 -0.000206018 0 200 0
-26.5243 -7.90482 -0.000209093 0 200 0
-26.5287 -7.90237 -0.000212168 0 200 0
-26.5331 -7.89991 -0.000215242 0 200 0
-26.5374 -7.89746 -0.000218317 0 200 0
-26.5418 -7.89501 -0.000221392 0 200 0
-26.5461 -7.89256 -0.000224467 0 200 0
-26.5505 -7.8901 -0.000227542 0 200 0
-26.5548 -7.88765 -0.000230617 0 200 0
-26.5592 -7.8852 -0.000233692 0 200 0
-26.5636 -7.88275 -0.000236767 0 200 0
-26.5679 -7.8803 -0.000239842 0 200 0
-26.5723 -7.87784 -0.000242917 0 200 0
-26.5766 -7.87539 -0.000245991 0 200 0
-26.581 -7.87294 -0.000249066 0 200 0
-26.5853 -7.87049 -0.000252141 0 200 0
-26.5897 -7.86803 -0.000255216 0 200 0
-26.5941 -7.86558 -0.000258291 0 200 0
-26.5984 -7.86313 -0.000261366 0 200 0
-26.6028 -7.86068 -0.000264441 0 200 0
-26.6071 -7.85823 -0.000267516 0 200 0
-26.6115 -7.85577 -0.000270591 0 200 0
-26.6158 -7.85332 -0.000273665 0 200 0
-26.6202 -7.85087 -0.00027674 0 200 0
-26.6246 -7.84842 -0.000279815 0 200 0
-26.6289 -7.84596 -0.00028289 0 200 0
-26.6333 -7.84351 -0.000285965 0 200 0
-26.6376 -7.84106 -0.00028904 0 200 0
-26.642 -7.83861 -0.000292115 0 200 0
-26.6463 -7.83616 -0.00029519 0 200 0
-26.6507 -7.8337 -0.000298265 0 200 0
-26.6551 -7.83125 -0.000301339 0 200 0
-26.6594 -7.8288 -0.000304414 0 200 0
-27.2238 -8.33385 0 0 200 0
-27.2288 -8.33416 3.36454e-05 0 200 0
-27.2338 -8.33448 6.72908e-05 0 200 0
-27.2387 -8.33479 0.000100936 0 200 0
-27.2437 -8.3351 0.000134582 0 200 0
-27.2487 -8.33541 0.000168227 0 200 0
-27.2537 -8.33573 0.000201872 0 200 0
-27.2587 -8.33604 0.000235518 0 200 0
-27.2637 -8.33635 0.000269163 0 200 0
-27.2687 -8.33666 0.000302808 0 200 0
-27.2737 -8.33698 0.000336454 0 200 0
-27.2787 -8.33729 0.000370099 0 200 0
-27.2837 -8.3376 0.000403745 0 200 0
-27.2886 -8.33791 0.00043739 0 200 0
-27.2936 -8.33823 0.000471035 0 200 0
-27.2986 -8.33854 0.000504681 0 200 0
-27.3036 -8.33885 0.000538326 0 200 0
-27.3086 -8.33916 0.000571972 0 200 0
-27.3136 -8.33948 0.000605617 0 200 0
-27.3186 -8.33979 0.000639262 0 200 0
-27.3236 -8.3401 0.000672908 0 200 0
-27.3286 -8.34041 0.000706553 0 200 0
-27.3336 -8.34072 0.000740198 0 200 0
-27.3385 -8.34104 0.000773844 0 200 0
-27.3435 -8.34135 0.000807489 0 200 0
-27.3485 -8.34166 0.000841135 0 200 0
-27.3535 -8.34197 0.00087478 0 200 0
-27.3585 -8.34229 0.000908425 0 200 0
-27.3635 -8.3426 0.000942071 0 200 0
-27.3685 -8.34291 0.000975716 0 200 0
-27.3735 -8.34322 0.00100936 0 200 0
-27.3785 -8.34354 0.00104301 0 200 0
-27.3835 -8.34385 0.00107665 0 200 0
-27.3884 -8.34416 0.0011103 0 200 0
-27.3934 -8.34447 0.00114394 0 200 0
-27.3984 -8.34479 0.00117759 0 200 0
-27.4034 -8.3451 0.00121123 0 200 0
-27.4084 -8.34541 0.00124488 0 200 0
-27.4134 -8.34572 0.00127852 0 200 0
-27.4184 -8.34604 0.00131217 0 200 0
-27.4234 -8.34635 0.00134582 0 200 0
-27.4284 -8.34666 0.00137946 0 200 0
-27.4334 -8.34697 0.00141311 0 200 0
-27.4383 -8.34729 0.00144675 0 200 0
-27.4433 -8.3476 0.0014804 0 200 0
-27.4483 -8.34791 0.00151404 0 200 0
-27.4533 -8.34822 0.00154769 0 200 0
-27.4583 -8.34853 0.00158133 0 200 0
-27.4633 -8.34885 0.00161498 0 200 0
-27.4683 -8.34916 0.00164862 0 200 0
-27.4733 -8.34947 0.00168227 0 200 0
-27.4783 -8.34978 0.00171591 0 200 0
-27.4833 -8.3501 0.00174956 0 200 0
-27.4883 -8.35041 0.00178321 0 200 0
-27.4932 -8.35072 0.00181685 0 200 0
-27.4982 -8.35103 0.0018505 0 200 0
-27.5032 -8.35135 0.00188414 0 200 0
-27.5082 -8.35166 0.00191779 0 200 0
-27.5132 -8.35197 0.00195143 0 200 0
-27.5182 -8.35228 0.00198508 0 200 0
-27.5232 -8.3526 0.00201872 0 200 0
-27.5282 -8.35291 0.00205237 0 200 0
-27.5332 -8.35322 0.00208601 0 200 0
-27.5382 -8.35353 0.00211966 0 200 0
-27.5431 -8.35385 0.0021533 0 200 0
-27.5481 -8.35416 0.00218695 0 200 0
-27.5531 -8.35447 0.0022206 0 200 0
-27.5581 -8.35478 0.00225424 0 200 0
-27.5631 -8.35509 0.00228789 0 200 0
-27.5681 -8.35541 0.00232153 0 200 0
-27.5731 -8.35572 0.00235518 0 200 0
-27.5781 -8.35603 0.00238882 0 200 0
-27.5831 -8.35634 0.00242247 0 200 0
-27.5881 -8.35666 0.00245611 0 200 0
-27.593 -8.35697 0.00248976 0 200 0
-27.598 -8.35728 0.0025234 0 200 0
-27.603 -8.35759 0.00255705 0 200 0
-27.608 -8.35791 0.00259069 0 200 0
-27.613 -8.35822 0.00262434 0 200 0
-27.618 -8.35853 0.00265799 0 200 0
-27.623 -8.35884 0.00269163 0 200 0
-27.628 -8.35916 0.00272528 0 200 0
-27.633 -8.35947 0.00275892 0 200 0
-27.638 -8.35978 0.00279257 0 200 0
-27.6429 -8.36009 0.00282621 0 200 0
-27.6479 -8.3604 0.00285986 0 200 0
-27.6529 -8.36072 0.0028935 0 200 0
-27.6579 -8.36103 0.00292715 0 200 0
-27.6629 -8.36134 0.00296079 0 200 0
-27.6679 -8.36165 0.00299444 0 200 0
-27.6729 -8.36197 0.00302808 0 200 0
-27.6779 -8.36228 0.00306173 0 200 0
-27.6829 -8.36259 0.00309538 0 200 0
-27.6879 -8.3629 0.00312902 0 200 0
-27.6928 -8.36322 0.00316267 0 200 0
-27.6978 -8.36353 0.00319631 0 200 0
-27.7028 -8.36384 0.00322996 0 200 0
-27.7078 -8.36415 0.0032636 0 200 0
-27.7128 -8.36447 0.00329725 0 200 0
-27.7178 -8.36478 0.00333089 0 200 0
-27.7825 -8.38043 0 0 200 0
-27.7861 -8.38389 9.94575e-05 0 200 0
-27.7898 -8.38734 0.000198915 0 200 0
-27.7934 -8.39079 0.000298373 0 200 0
-27.797 -8.39424 0.00039783 0 200 0
-27.8006 -8.39769 0.000497288 0 200 0
-27.8042 -8.40115 0.000596745 0 200 0
-27.8078 -8.4046 0.000696203 0 200 0
-27.8115 -8.40805 0.00079566 0 200 0
-27.8151 -8.4115 0.000895118 0 200 0
-27.8187 -8.41495 0.000994575 0 200 0
-27.8223 -8.41841 0.00109403 0 200 0
-27.8259 -8.42186 0.00119349 0 200 0
-27.8295 -8.42531 0.00129295 0 200 0
-27.8332 -8.42876 0.00139241 0 200 0
-27.8368 -8.43221 0.00149186 0 200 0
-27.8404 -8.43567 0.00159132 0 200 0
-27.844 -8.43912 0.00169078 0 200 0
-27.8476 -8.44257 0.00179024 0 200 0
-27.8512 -8.44602 0.00188969 0 200 0
-27.8548 -8.44947 0.00198915 0 200 0
-27.8585 -8.45293 0.00208861 0 200 0
-27.8621 -8.45638 0.00218807 0 200 0
-27.8657 -8.45983 0.00228752 0 200 0
-27.8693 -8.46328 0.00238698 0 200 0
-27.8729 -8.46673 0.00248644 0 200 0
-27.8765 -8.47019 0.0025859 0 200 0
-27.8802 -8.47364 0.00268535 0 200 0
-27.8838 -8.47709 0.00278481 0 200 0
-27.8874 -8.48054 0.00288427 0 200 0
-27.891 -8.48399 0.00298373 0 200 0
-27.8946 -8.48745 0.00308318 0 200 0
-27.8982 -8.4909 0.00318264 0 200 0
-27.9018 -8.49435 0.0032821 0 200 0
-27.9055 -8.4978 0.00338156 0 200 0
-27.9091 -8.50126 0.00348101 0 200 0
-27.9127 -8.50471 0.00358047 0 200 0
-27.9163 -8.50816 0.00367993 0 200 0
-27.9199 -8.51161 0.00377939 0 200 0
-27.9235 -8.51506 0.00387884 0 200 0
-27.9272 -8.51851 0.0039783 0 200 0
-27.9308 -8.52197 0.00407776 0 200 0
-27.9344 -8.52542 0.00417722 0 200 0
-27.938 -8.52887 0.00427667 0 200 0
-27.9416 -8.53232 0.00437613 0 200 0
-27.9452 -8.53578 0.00447559 0 200 0
-27.9489 -8.53923 0.00457505 0 200 0
-27.9525 -8.54268 0.0046745 0 200 0
-27.9561 -8.54613 0.00477396 0 200 0
-27.9597 -8.54958 0.00487342 0 200 0
-27.9633 -8.55303 0.00497288 0 200 0
-27.9669 -8.55649 0.00507233 0 200 0
-27.9705 -8.55994 0.00517179 0 200 0
-27.9742 -8.56339 0.00527125 0 200 0
-27.9778 -8.56684 0.00537071 0 200 0
-27.9814 -8.57029 0.00547016 0 200 0
-27.985 -8.57375 0.00556962 0 200 0
-27.9886 -8.5772 0.00566908 0 200 0
-27.9922 -8.58065 0.00576854 0 200 0
-27.9959 -8.5841 0.00586799 0 200 0
-27.9995 -8.58755 0.00596745 0 200 0
-28.0031 -8.59101 0.00606691 0 200 0
-28.0067 -8.59446 0.00616637 0 200 0
-28.0103 -8.59791 0.00626583 0 200 0
-28.0139 -8.60136 0.00636528 0 200 0
-28.0176 -8.60481 0.00646474 0 200 0
-28.0212 -8.60827 0.0065642 0 200 0
-28.0248 -8.61172 0.00666366 0 200 0
-28.0284 -8.61517 0.00676311 0 200 0
-28.032 -8.61862 0.00686257 0 200 0
-28.0356 -8.62208 0.00696203 0 200 0
-28.0392 -8.62553 0.00706149 0 200 0
-28.0429 -8.62898 0.00716094 0 200 0
-28.0465 -8.63243 0.0072604 0 200 0
-28.0501 -8.63588 0.00735986 0 200 0
-28.0537 -8.63933 0.00745932 0 200 0
-28.0573 -8.64279 0.00755877 0 200 0
-28.0609 -8.64624 0.00765823 0 200 0
-28.0646 -8.64969 0.00775769 0 200 0
-28.0682 -8.65314 0.00785715 0 200 0
-28.0718 -8.6566 0.0079566 0 200 0
-28.0754 -8.66005 0.00805606 0 200 0
-28.079 -8.6635 0.00815552 0 200 0
-28.0826 -8.66695 0.00825498 0 200 0
-28.0863 -8.6704 0.00835443 0 200 0
-28.0899 -8.67385 0.00845389 0 200 0
-28.0935 -8.67731 0.00855335 0 200 0
-28.0971 -8.68076 0.00865281 0 200 0
-28.1007 -8.68421 0.00875226 0 200 0
-28.1043 -8.68766 0.00885172 0 200 0
-28.1079 -8.69112 0.00895118 0 200 0
-28.1116 -8.69457 0.00905064 0 200 0
-28.1152 -8.69802 0.00915009 0 200 0
-28.1188 -8.70147 0.00924955 0 200 0
-28.1224 -8.70492 0.00934901 0 200 0
-28.126 -8.70837 0.00944847 0 200 0
-28.1296 -8.71183 0.00954792 0 200 0
-28.1333 -8.71528 0.00964738 0 200 0
-28.1369 -8.71873 0.00974684 0 200 0
-28.1405 -8.72218 0.0098463 0 200 0
-28.1236 -8.34293 0 0 200 0
-28.1262 -8.34722 0.000163087 0 200 0
-28.1288 -8.35151 0.000326175 0 200 0
-28.1313 -8.35579 0.000489262 0 200 0
-28.1339 -8.36008 0.00065235 0 200 0
-28.1365 -8.36437 0.000815437 0 200 0
-28.139 -8.36866 0.000978524 0 200 0
-28.1416 -8.37295 0.00114161 0 200 0
-28.1441 -8.37724 0.0013047 0 200 0
-28.1467 -8.38153 0.00146779 0 200 0
-28.1493 -8.38582 0.00163087 0 200 0
-28.1518 -8.39011 0.00179396 0 200 0
-28.1544 -8.3944 0.00195705 0 200 0
-28.157 -8.39869 0.00212014 0 200 0
-28.1595 -8.40298 0.00228322 0 200 0
-28.1621 -8.40727 0.00244631 0 200 0
-28.1647 -8.41156 0.0026094 0 200 0
-28.1672 -8.41585 0.00277249 0 200 0
-28.1698 -8.42014 0.00293557 0 200 0
-28.1724 -8.42443 0.00309866 0 200 0
-28.1749 -8.42872 0.00326175 0 200 0
-28.1775 -8.43301 0.00342484 0 200 0
-28.18 -8.4373 0.00358792 0 200 0
-28.1826 -8.44159 0.00375101 0 200 0
-28.1852 -8.44588 0.0039141 0 200 0
-28.1877 -8.45017 0.00407718 0 200 0
-28.1903 -8.45446 0.00424027 0 200 0
-28.1929 -8.45874 0.00440336 0 200 0
-28.1954 -8.46303 0.00456645 0 200 0
-28.198 -8.46732 0.00472953 0 200 0
-28.2006 -8.47161 0.00489262 0 200 0
-28.2031 -8.4759 0.00505571 0 200 0
-28.2057 -8.48019 0.0052188 0 200 0
-28.2082 -8.48448 0.00538188 0 200 0
-28.2108 -8.48877 0.00554497 0 200 0
-28.2134 -8.49306 0.00570806 0 200 0
-28.2159 -8.49735 0.00587115 0 200 0
-28.2185 -8.50164 0.00603423 0 200 0
-28.2211 -8.50593 0.00619732 0 200 0
-28.2236 -8.51022 0.00636041 0 200 0
-28.2262 -8.51451 0.0065235 0 200 0
-28.2288 -8.5188 0.00668658 0 200 0
-28.2313 -8.52309 0.00684967 0 200 0
-28.2339 -8.52738 0.00701276 0 200 0
-28.2364 -8.53167 0.00717585 0 200 0
-28.239 -8.53596 0.00733893 0 200 0
-28.2416 -8.54025 0.00750202 0 200 0
-28.2441 -8.54454 0.00766511 0 200 0
-28.2467 -8.54883 0.00782819 0 200 0
-28.2493 -8.55311 0.00799128 0 200 0
-28.2518 -8.5574 0.00815437 0 200 0
-28.2544 -8.56169 0.00831746 0 200 0
-28.257 -8.56598 0.00848054 0 200 0
-28.2595 -8.57027 0.00864363 0 200 0
-28.2621 -8.57456 0.00880672 0 200 0
-28.2646 -8.57885 0.00896981 0 200 0
-28.2672 -8.58314 0.00913289 0 200 0
-28.2698 -8.58743 0.00929598 0 200 0
-28.2723 -8.59172 0.00945907 0 200 0
-28.2749 -8.59601 0.00962216 0 200 0
-28.2775 -8.6003 0.00978524 0 200 0
-28.28 -8.60459 0.00994833 0 200 0
-28.2826 -8.60888 0.0101114 0 200 0
-28.2852 -8.61317 0.0102745 0 200 0
-28.2877 -8.61746 0.0104376 0 200 0
-28.2903 -8.62175 0.0106007 0 200 0
-28.2929 -8.62604 0.0107638 0 200 0
-28.2954 -8.63033 0.0109269 0 200 0
-28.298 -8.63462 0.0110899 0 200 0
-28.3005 -8.63891 0.011253 0 200 0
-28.3031 -8.6432 0.0114161 0 200 0
-28.3057 -8.64749 0.0115792 0 200 0
-28.3082 -8.65178 0.0117423 0 200 0
-28.3108 -8.65606 0.0119054 0 200 0
-28.3134 -8.66035 0.0120685 0 200 0
-28.3159 -8.66464 0.0122316 0 200 0
-28.3185 -8.66893 0.0123946 0 200 0
-28.3211 -8.67322 0.0125577 0 200 0
-28.3236 -8.67751 0.0127208 0 200 0
-28.3262 -8.6818 0.0128839 0 200 0
-28.3287 -8.68609 0.013047 0 200 0
-28.3313 -8.69038 0.0132101 0 200 0
-28.3339 -8.69467 0.0133732 0 200 0
-28.3364 -8.69896 0.0135363 0 200 0
-28.339 -8.70325 0.0136993 0 200 0
-28.3416 -8.70754 0.0138624 0 200 0
-28.3441 -8.71183 0.0140255 0 200 0
-28.3467 -8.71612 0.0141886 0 200 0
-28.3493 -8.72041 0.0143517 0 200 0
-28.3518 -8.7247 0.0145148 0 200 0
-28.3544 -8.72899 0.0146779 0 200 0
-28.3569 -8.73328 0.014841 0 200 0
-28.3595 -8.73757 0.015004 0 200 0
-28.3621 -8.74186 0.0151671 0 200 0
-28.3646 -8.74615 0.0153302 0 200 0
-28.3672 -8.75043 0.0154933 0 200 0
-28.3698 -8.75472 0.0156564 0 200 0
-28.3723 -8.75901 0.0158195 0 200 0
-28.3749 -8.7633 0.0159826 0 200 0
-28.3775 -8.76759 0.0161457 0 200 0
-28.4145 -8.23957 0 0 200 0
-28.416 -8.24433 2.47899e-05 0 200 0
-28.4176 -8.24909 4.95798e-05 0 200 0
-28.4191 -8.25385 7.43697e-05 0 200 0
-28.4206 -8.25861 9.91596e-05 0 200 0
-28.4222 -8.26337 0.00012395 0 200 0
-28.4237 -8.26813 0.000148739 0 200 0
-28.4252 -8.27289 0.000173529 0 200 0
-28.4268 -8.27765 0.000198319 0 200 0
-28.4283 -8.2824 0.000223109 0 200 0
-28.4298 -8.28716 0.000247899 0 200 0
-28.4313 -8.29192 0.000272689 0 200 0
-28.4329 -8.29668 0.000297479 0 200 0
-28.4344 -8.30144 0.000322269 0 200 0
-28.4359 -8.3062 0.000347059 0 200 0
-28.4375 -8.31096 0.000371849 0 200 0
-28.439 -8.31572 0.000396639 0 200 0
-28.4405 -8.32048 0.000421428 0 200 0
-28.4421 -8.32524 0.000446218 0 200 0
-28.4436 -8.33 0.000471008 0 200 0
-28.4451 -8.33476 0.000495798 0 200 0
-28.4467 -8.33952 0.000520588 0 200 0
-28.4482 -8.34428 0.000545378 0 200 0
-28.4497 -8.34904 0.000570168 0 200 0
-28.4513 -8.3538 0.000594958 0 200 0
-28.4528 -8.35856 0.000619748 0 200 0
-28.4543 -8.36332 0.000644538 0 200 0
-28.4558 -8.36808 0.000669328 0 200 0
-28.4574 -8.37284 0.000694118 0 200 0
-28.4589 -8.3776 0.000718907 0 200 0
-28.4604 -8.38236 0.000743697 0 200 0
-28.462 -8.38712 0.000768487 0 200 0
-28.4635 -8.39188 0.000793277 0 200 0
-28.465 -8.39664 0.000818067 0 200 0
-28.4666 -8.4014 0.000842857 0 200 0
-28.4681 -8.40616 0.000867647 0 200 0
-28.4696 -8.41092 0.000892437 0 200 0
-28.4712 -8.41568 0.000917227 0 200 0
-28.4727 -8.42044 0.000942017 0 200 0
-28.4742 -8.4252 0.000966807 0 200 0
-28.4757 -8.42996 0.000991596 0 200 0
-28.4773 -8.43472 0.00101639 0 200 0
-28.4788 -8.43948 0.00104118 0 200 0
-28.4803 -8.44424 0.00106597 0 200 0
-28.4819 -8.449 0.00109076 0 200 0
-28.4834 -8.45376 0.00111555 0 200 0
-28.4849 -8.45852 0.00114034 0 200 0
-28.4865 -8.46327 0.00116513 0 200 0
-28.488 -8.46803 0.00118992 0 200 0
-28.4895 -8.47279 0.00121471 0 200 0
-28.4911 -8.47755 0.0012395 0 200 0
-28.4926 -8.48231 0.00126429 0 200 0
-28.4941 -8.48707 0.00128908 0 200 0
-28.4957 -8.49183 0.00131387 0 200 0
-28.4972 -8.49659 0.00133866 0 200 0
-28.4987 -8.50135 0.00136345 0 200 0
-28.5002 -8.50611 0.00138824 0 200 0
-28.5018 -8.51087 0.00141302 0 200 0
-28.5033 -8.51563 0.00143781 0 200 0
-28.5048 -8.52039 0.0014626 0 200 0
-28.5064 -8.52515 0.00148739 0 200 0
-28.5079 -8.52991 0.00151218 0 200 0
-28.5094 -8.53467 0.00153697 0 200 0
-28.511 -8.53943 0.00156176 0 200 0
-28.5125 -8.54419 0.00158655 0 200 0
-28.514 -8.54895 0.00161134 0 200 0
-28.5156 -8.55371 0.00163613 0 200 0
-28.5171 -8.55847 0.00166092 0 200 0
-28.5186 -8.56323 0.00168571 0 200 0
-28.5201 -8.56799 0.0017105 0 200 0
-28.5217 -8.57275 0.00173529 0 200 0
-28.5232 -8.57751 0.00176008 0 200 0
-28.5247 -8.58227 0.00178487 0 200 0
-28.5263 -8.58703 0.00180966 0 200 0
-28.5278 -8.59179 0.00183445 0 200 0
-28.5293 -8.59655 0.00185924 0 200 0
-28.5309 -8.60131 0.00188403 0 200 0
-28.5324 -8.60607 0.00190882 0 200 0
-28.5339 -8.61083 0.00193361 0 200 0
-28.5355 -8.61559 0.0019584 0 200 0
-28.537 -8.62035 0.00198319 0 200 0
-28.5385 -8.62511 0.00200798 0 200 0
-28.5401 -8.62987 0.00203277 0 200 0
-28.5416 -8.63463 0.00205756 0 200 0
-28.5431 -8.63939 0.00208235 0 200 0
-28.5446 -8.64415 0.00210714 0 200 0
-28.5462 -8.64891 0.00213193 0 200 0
-28.5477 -8.65367 0.00215672 0 200 0
-28.5492 -8.65843 0.00218151 0 200 0
-28.5508 -8.66319 0.0022063 0 200 0
-28.5523 -8.66794 0.00223109 0 200 0
-28.5538 -8.6727 0.00225588 0 200 0
-28.5554 -8.67746 0.00228067 0 200 0
-28.5569 -8.68222 0.00230546 0 200 0
-28.5584 -8.68698 0.00233025 0 200 0
-28.56 -8.69174 0.00235504 0 200 0
-28.5615 -8.6965 0.00237983 0 200 0
-28.563 -8.70126 0.00240462 0 200 0
-28.5646 -8.70602 0.00242941 0 200 0
-28.5661 -8.71078 0.0024542 0 200 0
-28.7022 -8.25437 0 0 200 0
-28.7035 -8.25918 -2.66848e-05 0 200 0
-28.7049 -8.264 -5.33696e-05 0 200 0
-28.7062 -8.26881 -8.00544e-05 0 200 0
-28.7076 -8.27362 -0.000106739 0 200 0
-28.709 -8.27843 -0.000133424 0 200 0
-28.7103 -8.28324 -0.000160109 0 200 0
-28.7117 -8.28805 -0.000186794 0 200 0
-28.713 -8.29286 -0.000213478 0 200 0
-28.7144 -8.29768 -0.000240163 0 200 0
-28.7158 -8.30249 -0.000266848 0 200 0
-28.7171 -8.3073 -0.000293533 0 200 0
-28.7185 -8.31211 -0.000320218 0 200 0
-28.7198 -8.31692 -0.000346903 0 200 0
-28.7212 -8.32173 -0.000373587 0 200 0
-28.7226 -8.32655 -0.000400272 0 200 0
-28.7239 -8.33136 -0.000426957 0 200 0
-28.7253 -8.33617 -0.000453642 0 200 0
-28.7266 -8.34098 -0.000480327 0 200 0
-28.728 -8.34579 -0.000507011 0 200 0
-28.7294 -8.3506 -0.000533696 0 200 0
-28.7307 -8.35542 -0.000560381 0 200 0
-28.7321 -8.36023 -0.000587066 0 200 0
-28.7334 -8.36504 -0.000613751 0 200 0
-28.7348 -8.36985 -0.000640435 0 200 0
-28.7362 -8.37466 -0.00066712 0 200 0
-28.7375 -8.37947 -0.000693805 0 200 0
-28.7389 -8.38428 -0.00072049 0 200 0
-28.7402 -8.3891 -0.000747175 0 200 0
-28.7416 -8.39391 -0.00077386 0 200 0
-28.7429 -8.39872 -0.000800544 0 200 0
-28.7443 -8.40353 -0.000827229 0 200 0
-28.7457 -8.40834 -0.000853914 0 200 0
-28.747 -8.41315 -0.000880599 0 200 0
-28.7484 -8.41796 -0.000907284 0 200 0
-28.7497 -8.42278 -0.000933968 0 200 0
-28.7511 -8.42759 -0.000960653 0 200 0
-28.7525 -8.4324 -0.000987338 0 200 0
-28.7538 -8.43721 -0.00101402 0 200 0
-28.7552 -8.44202 -0.00104071 0 200 0
-28.7565 -8.44683 -0.00106739 0 200 0
-28.7579 -8.45165 -0.00109408 0 200 0
-28.7593 -8.45646 -0.00112076 0 200 0
-28.7606 -8.46127 -0.00114745 0 200 0
-28.762 -8.46608 -0.00117413 0 200 0
-28.7633 -8.47089 -0.00120082 0 200 0
-28.7647 -8.4757 -0.0012275 0 200 0
-28.7661 -8.48052 -0.00125419 0 200 0
-28.7674 -8.48533 -0.00128087 0 200 0
-28.7688 -8.49014 -0.00130756 0 200 0
-28.7701 -8.49495 -0.00133424 0 200 0
-28.7715 -8.49976 -0.00136093 0 200 0
-28.7729 -8.50457 -0.00138761 0 200 0
-28.7742 -8.50939 -0.00141429 0 200 0
-28.7756 -8.5142 -0.00144098 0 200 0
-28.7769 -8.51901 -0.00146766 0 200 0
-28.7783 -8.52382 -0.00149435 0 200 0
-28.7797 -8.52863 -0.00152103 0 200 0
-28.781 -8.53344 -0.00154772 0 200 0
-28.7824 -8.53825 -0.0015744 0 200 0
-28.7837 -8.54307 -0.00160109 0 200 0
-28.7851 -8.54788 -0.00162777 0 200 0
-28.7864 -8.55269 -0.00165446 0 200 0
-28.7878 -8.5575 -0.00168114 0 200 0
-28.7892 -8.56231 -0.00170783 0 200 0
-28.7905 -8.56712 -0.00173451 0 200 0
-28.7919 -8.57194 -0.0017612 0 200 0
-28.7932 -8.57675 -0.00178788 0 200 0
-28.7946 -8.58156 -0.00181457 0 200 0
-28.796 -8.58637 -0.00184125 0 200 0
-28.7973 -8.59118 -0.00186794 0 200 0
-28.7987 -8.59599 -0.00189462 0 200 0
-28.8 -8.60081 -0.00192131 0 200 0
-28.8014 -8.60562 -0.00194799 0 200 0
-28.8028 -8.61043 -0.00197468 0 200 0
-28.8041 -8.61524 -0.00200136 0 200 0
-28.8055 -8.62005 -0.00202805 0 200 0
-28.8068 -8.62486 -0.00205473 0 200 0
-28.8082 -8.62967 -0.00208142 0 200 0
-28.8096 -8.63449 -0.0021081 0 200 0
-28.8109 -8.6393 -0.00213478 0 200 0
-28.8123 -8.64411 -0.00216147 0 200 0
-28.8136 -8.64892 -0.00218815 0 200 0
-28.815 -8.65373 -0.00221484 0 200 0
-28.8164 -8.65854 -0.00224152 0 200 0
-28.8177 -8.66336 -0.00226821 0 200 0
-28.8191 -8.66817 -0.00229489 0 200 0
-28.8204 -8.67298 -0.00232158 0 200 0
-28.8218 -8.67779 -0.00234826 0 200 0
-28.8232 -8.6826 -0.00237495 0 200 0
-28.8245 -8.68741 -0.00240163 0 200 0
-28.8259 -8.69223 -0.00242832 0 200 0
-28.8272 -8.69704 -0.002455 0 200 0
-28.8286 -8.70185 -0.00248169 0 200 0
-28.83 -8.70666 -0.00250837 0 200 0
-28.8313 -8.71147 -0.00253506 0 200 0
-28.8327 -8.71628 -0.00256174 0 200 0
-28.834 -8.72109 -0.00258843 0 200 0
-28.8354 -8.72591 -0.00261511 0 200 0
-28.8367 -8.73072 -0.0026418 0 200 0
-29.0361 -8.29117 0 0 200 0
-29.0366 -8.29614 -0.000197619 0 200 0
-29.0371 -8.30111 -0.000395237 0 200 0
-29.0376 -8.30608 -0.000592856 0 200 0
-29.0382 -8.31105 -0.000790474 0 200 0
-29.0387 -8.31602 -0.000988093 0 200 0
-29.0392 -8.32099 -0.00118571 0 200 0
-29.0397 -8.32596 -0.00138333 0 200 0
-29.0402 -8.33093 -0.00158095 0 200 0
-29.0407 -8.3359 -0.00177857 0 200 0
-29.0412 -8.34087 -0.00197619 0 200 0
-29.0417 -8.34584 -0.0021738 0 200 0
-29.0422 -8.35081 -0.00237142 0 200 0
-29.0427 -8.35578 -0.00256904 0 200 0
-29.0433 -8.36075 -0.00276666 0 200 0
-29.0438 -8.36572 -0.00296428 0 200 0
-29.0443 -8.37069 -0.0031619 0 200 0
-29.0448 -8.37566 -0.00335952 0 200 0
-29.0453 -8.38063 -0.00355713 0 200 0
-29.0458 -8.3856 -0.00375475 0 200 0
-29.0463 -8.39057 -0.00395237 0 200 0
-29.0468 -8.39554 -0.00414999 0 200 0
-29.0473 -8.40051 -0.00434761 0 200 0
-29.0479 -8.40548 -0.00454523 0 200 0
-29.0484 -8.41045 -0.00474285 0 200 0
-29.0489 -8.41542 -0.00494046 0 200 0
-29.0494 -8.42039 -0.00513808 0 200 0
-29.0499 -8.42536 -0.0053357 0 200 0
-29.0504 -8.43033 -0.00553332 0 200 0
-29.0509 -8.4353 -0.00573094 0 200 0
-29.0514 -8.44027 -0.00592856 0 200 0
-29.0519 -8.44524 -0.00612618 0 200 0
-29.0524 -8.45021 -0.00632379 0 200 0
-29.053 -8.45518 -0.00652141 0 200 0
-29.0535 -8.46015 -0.00671903 0 200 0
-29.054 -8.46512 -0.00691665 0 200 0
-29.0545 -8.47009 -0.00711427 0 200 0
-29.055 -8.47506 -0.00731189 0 200 0
-29.0555 -8.48003 -0.00750951 0 200 0
-29.056 -8.485 -0.00770713 0 200 0
-29.0565 -8.48997 -0.00790474 0 200 0
-29.057 -8.49494 -0.00810236 0 200 0
-29.0575 -8.49991 -0.00829998 0 200 0
-29.0581 -8.50488 -0.0084976 0 200 0
-29.0586 -8.50985 -0.00869522 0 200 0
-29.0591 -8.51482 -0.00889284 0 200 0
-29.0596 -8.51979 -0.00909046 0 200 0
-29.0601 -8.52476 -0.00928807 0 200 0
-29.0606 -8.52973 -0.00948569 0 200 0
-29.0611 -8.5347 -0.00968331 0 200 0
-29.0616 -8.53967 -0.00988093 0 200 0
-29.0621 -8.54464 -0.0100785 0 200 0
-29.0626 -8.54961 -0.0102762 0 200 0
-29.0632 -8.55458 -0.0104738 0 200 0
-29.0637 -8.55955 -0.0106714 0 200 0
-29.0642 -8.56452 -0.010869 0 200 0
-29.0647 -8.56949 -0.0110666 0 200 0
-29.0652 -8.57446 -0.0112643 0 200 0
-29.0657 -8.57943 -0.0114619 0 200 0
-29.0662 -8.5844 -0.0116595 0 200 0
-29.0667 -8.58937 -0.0118571 0 200 0
-29.0672 -8.59434 -0.0120547 0 200 0
-29.0678 -8.59931 -0.0122524 0 200 0
-29.0683 -8.60428 -0.01245 0 200 0
-29.0688 -8.60925 -0.0126476 0 200 0
-29.0693 -8.61422 -0.0128452 0 200 0
-29.0698 -8.61919 -0.0130428 0 200 0
-29.0703 -8.62416 -0.0132404 0 200 0
-29.0708 -8.62913 -0.0134381 0 200 0
-29.0713 -8.6341 -0.0136357 0 200 0
-29.0718 -8.63907 -0.0138333 0 200 0
-29.0723 -8.64404 -0.0140309 0 200 0
-29.0729 -8.64901 -0.0142285 0 200 0
-29.0734 -8.65398 -0.0144262 0 200 0
-29.0739 -8.65895 -0.0146238 0 200 0
-29.0744 -8.66392 -0.0148214 0 200 0
-29.0749 -8.66889 -0.015019 0 200 0
-29.0754 -8.67386 -0.0152166 0 200 0
-29.0759 -8.67883 -0.0154143 0 200 0
-29.0764 -8.6838 -0.0156119 0 200 0
-29.0769 -8.68877 -0.0158095 0 200 0
-29.0774 -8.69374 -0.0160071 0 200 0
-29.078 -8.69871 -0.0162047 0 200 0
-29.0785 -8.70368 -0.0164023 0 200 0
-29.079 -8.70864 -0.0166 0 200 0
-29.0795 -8.71362 -0.0167976 0 200 0
-29.08 -8.71859 -0.0169952 0 200 0
-29.0805 -8.72356 -0.0171928 0 200 0
-29.081 -8.72853 -0.0173904 0 200 0
-29.0815 -8.73349 -0.0175881 0 200 0
-29.082 -8.73847 -0.0177857 0 200 0
-29.0825 -8.74343 -0.0179833 0 200 0
-29.0831 -8.74841 -0.0181809 0 200 0
-29.0836 -8.75338 -0.0183785 0 200 0
-29.0841 -8.75834 -0.0185761 0 200 0
-29.0846 -8.76332 -0.0187738 0 200 0
-29.0851 -8.76828 -0.0189714 0 200 0
-29.0856 -8.77325 -0.019169 0 200 0
-29.0861 -8.77822 -0.0193666 0 200 0
-29.0866 -8.78319 -0.0195642 0 200 0
-29.4377 -8.33231 0 0 200 0
-29.4376 -8.3373 -0.000281109 0 200 0
-29.4375 -8.34229 -0.000562218 0 200 0
-29.4374 -8.34728 -0.000843328 0 200 0
-29.4373 -8.35227 -0.00112444 0 200 0
-29.4372 -8.35726 -0.00140555 0 200 0
-29.4371 -8.36225 -0.00168666 0 200 0
-29.437 -8.36724 -0.00196776 0 200 0
-29.4369 -8.37224 -0.00224887 0 200 0
-29.4368 -8.37723 -0.00252998 0 200 0
-29.4367 -8.38222 -0.00281109 0 200 0
-29.4366 -8.38721 -0.0030922 0 200 0
-29.4365 -8.3922 -0.00337331 0 200 0
-29.4364 -8.39719 -0.00365442 0 200 0
-29.4363 -8.40218 -0.00393553 0 200 0
-29.4362 -8.40717 -0.00421664 0 200 0
-29.4361 -8.41216 -0.00449775 0 200 0
-29.436 -8.41716 -0.00477886 0 200 0
-29.4359 -8.42215 -0.00505997 0 200 0
-29.4358 -8.42714 -0.00534108 0 200 0
-29.4357 -8.43213 -0.00562218 0 200 0
-29.4356 -8.43712 -0.00590329 0 200 0
-29.4355 -8.44211 -0.0061844 0 200 0
-29.4354 -8.4471 -0.00646551 0 200 0
-29.4353 -8.45209 -0.00674662 0 200 0
-29.4352 -8.45708 -0.00702773 0 200 0
-29.4351 -8.46208 -0.00730884 0 200 0
-29.435 -8.46707 -0.00758995 0 200 0
-29.4349 -8.47206 -0.00787106 0 200 0
-29.4348 -8.47705 -0.00815217 0 200 0
-29.4347 -8.48204 -0.00843328 0 200 0
-29.4346 -8.48703 -0.00871439 0 200 0
-29.4345 -8.49202 -0.00899549 0 200 0
-29.4344 -8.49701 -0.0092766 0 200 0
-29.4343 -8.502 -0.00955771 0 200 0
-29.4342 -8.507 -0.00983882 0 200 0
-29.4341 -8.51199 -0.0101199 0 200 0
-29.434 -8.51698 -0.010401 0 200 0
-29.4339 -8.52197 -0.0106822 0 200 0
-29.4338 -8.52696 -0.0109633 0 200 0
-29.4337 -8.53195 -0.0112444 0 200 0
-29.4336 -8.53694 -0.0115255 0 200 0
-29.4335 -8.54193 -0.0118066 0 200 0
-29.4334 -8.54692 -0.0120877 0 200 0
-29.4333 -8.55192 -0.0123688 0 200 0
-29.4333 -8.55691 -0.0126499 0 200 0
-29.4332 -8.5619 -0.012931 0 200 0
-29.4331 -8.56689 -0.0132121 0 200 0
-29.433 -8.57188 -0.0134932 0 200 0
-29.4329 -8.57687 -0.0137744 0 200 0
-29.4328 -8.58186 -0.0140555 0 200 0
-29.4327 -8.58685 -0.0143366 0 200 0
-29.4326 -8.59184 -0.0146177 0 200 0
-29.4325 -8.59684 -0.0148988 0 200 0
-29.4324 -8.60183 -0.0151799 0 200 0
-29.4323 -8.60682 -0.015461 0 200 0
-29.4322 -8.61181 -0.0157421 0 200 0
-29.4321 -8.6168 -0.0160232 0 200 0
-29.432 -8.62179 -0.0163043 0 200 0
-29.4319 -8.62678 -0.0165854 0 200 0
-29.4318 -8.63177 -0.0168666 0 200 0
-29.4317 -8.63676 -0.0171477 0 200 0
-29.4316 -8.64176 -0.0174288 0 200 0
-29.4315 -8.64675 -0.0177099 0 200 0
-29.4314 -8.65174 -0.017991 0 200 0
-29.4313 -8.65673 -0.0182721 0 200 0
-29.4312 -8.66172 -0.0185532 0 200 0
-29.4311 -8.66671 -0.0188343 0 200 0
-29.431 -8.6717 -0.0191154 0 200 0
-29.4309 -8.67669 -0.0193965 0 200 0
-29.4308 -8.68168 -0.0196776 0 200 0
-29.4307 -8.68668 -0.0199588 0 200 0
-29.4306 -8.69167 -0.0202399 0 200 0
-29.4305 -8.69666 -0.020521 0 200 0
-29.4304 -8.70165 -0.0208021 0 200 0
-29.4303 -8.70664 -0.0210832 0 200 0
-29.4302 -8.71163 -0.0213643 0 200 0
-29.4301 -8.71662 -0.0216454 0 200 0
-29.43 -8.72161 -0.0219265 0 200 0
-29.4299 -8.7266 -0.0222076 0 200 0
-29.4298 -8.7316 -0.0224887 0 200 0
-29.4297 -8.73659 -0.0227698 0 200 0
-29.4296 -8.74158 -0.023051 0 200 0
-29.4295 -8.74657 -0.0233321 0 200 0
-29.4294 -8.75156 -0.0236132 0 200 0
-29.4293 -8.75655 -0.0238943 0 200 0
-29.4292 -8.76154 -0.0241754 0 200 0
-29.4291 -8.76653 -0.0244565 0 200 0
-29.429 -8.77153 -0.0247376 0 200 0
-29.4289 -8.77652 -0.0250187 0 200 0
-29.4288 -8.78151 -0.0252998 0 200 0
-29.4287 -8.7865 -0.0255809 0 200 0
-29.4286 -8.79149 -0.025862 0 200 0
-29.4285 -8.79648 -0.0261432 0 200 0
-29.4284 -8.80147 -0.0264243 0 200 0
-29.4284 -8.80646 -0.0267054 0 200 0
-29.4283 -8.81145 -0.0269865 0 200 0
-29.4282 -8.81645 -0.0272676 0 200 0
-29.4281 -8.82144 -0.0275487 0 200 0
-29.428 -8.82643 -0.0278298 0 200 0
-30.2904 -8.51844 0 0 200 0
-30.289 -8.52322 -0.000191814 0 200 0
-30.2875 -8.52801 -0.000383628 0 200 0
-30.2861 -8.53279 -0.000575442 0 200 0
-30.2846 -8.53758 -0.000767255 0 200 0
-30.2832 -8.54236 -0.000959069 0 200 0
-30.2818 -8.54715 -0.00115088 0 200 0
-30.2803 -8.55193 -0.0013427 0 200 0
-30.2789 -8.55672 -0.00153451 0 200 0
-30.2775 -8.5615 -0.00172632 0 200 0
-30.276 -8.56629 -0.00191814 0 200 0
-30.2746 -8.57107 -0.00210995 0 200 0
-30.2731 -8.57586 -0.00230177 0 200 0
-30.2717 -8.58064 -0.00249358 0 200 0
-30.2703 -8.58543 -0.00268539 0 200 0
-30.2688 -8.59021 -0.00287721 0 200 0
-30.2674 -8.595 -0.00306902 0 200 0
-30.266 -8.59978 -0.00326084 0 200 0
-30.2645 -8.60457 -0.00345265 0 200 0
-30.2631 -8.60936 -0.00364446 0 200 0
-30.2617 -8.61414 -0.00383628 0 200 0
-30.2602 -8.61893 -0.00402809 0 200 0
-30.2588 -8.62371 -0.0042199 0 200 0
-30.2573 -8.6285 -0.00441172 0 200 0
-30.2559 -8.63328 -0.00460353 0 200 0
-30.2545 -8.63807 -0.00479535 0 200 0
-30.253 -8.64285 -0.00498716 0 200 0
-30.2516 -8.64764 -0.00517897 0 200 0
-30.2502 -8.65242 -0.00537079 0 200 0
-30.2487 -8.65721 -0.0055626 0 200 0
-30.2473 -8.66199 -0.00575442 0 200 0
-30.2458 -8.66678 -0.00594623 0 200 0
-30.2444 -8.67156 -0.00613804 0 200 0
-30.243 -8.67635 -0.00632986 0 200 0
-30.2415 -8.68113 -0.00652167 0 200 0
-30.2401 -8.68592 -0.00671348 0 200 0
-30.2387 -8.6907 -0.0069053 0 200 0
-30.2372 -8.69549 -0.00709711 0 200 0
-30.2358 -8.70027 -0.00728893 0 200 0
-30.2343 -8.70506 -0.00748074 0 200 0
-30.2329 -8.70984 -0.00767255 0 200 0
-30.2315 -8.71463 -0.00786437 0 200 0
-30.23 -8.71941 -0.00805618 0 200 0
-30.2286 -8.7242 -0.008248 0 200 0
-30.2272 -8.72898 -0.00843981 0 200 0
-30.2257 -8.73377 -0.00863162 0 200 0
-30.2243 -8.73856 -0.00882344 0 200 0
-30.2229 -8.74334 -0.00901525 0 200 0
-30.2214 -8.74813 -0.00920706 0 200 0
-30.22 -8.75291 -0.00939888 0 200 0
-30.2185 -8.7577 -0.00959069 0 200 0
-30.2171 -8.76248 -0.00978251 0 200 0
-30.2157 -8.76727 -0.00997432 0 200 0
-30.2142 -8.77205 -0.0101661 0 200 0
-30.2128 -8.77684 -0.0103579 0 200 0
-30.2114 -8.78162 -0.0105498 0 200 0
-30.2099 -8.78641 -0.0107416 0 200 0
-30.2085 -8.79119 -0.0109334 0 200 0
-30.207 -8.79598 -0.0111252 0 200 0
-30.2056 -8.80076 -0.011317 0 200 0
-30.2042 -8.80555 -0.0115088 0 200 0
-30.2027 -8.81033 -0.0117006 0 200 0
-30.2013 -8.81512 -0.0118925 0 200 0
-30.1999 -8.8199 -0.0120843 0 200 0
-30.1984 -8.82469 -0.0122761 0 200 0
-30.197 -8.82947 -0.0124679 0 200 0
-30.1955 -8.83426 -0.0126597 0 200 0
-30.1941 -8.83904 -0.0128515 0 200 0
-30.1927 -8.84383 -0.0130433 0 200 0
-30.1912 -8.84861 -0.0132352 0 200 0
-30.1898 -8.8534 -0.013427 0 200 0
-30.1884 -8.85819 -0.0136188 0 200 0
-30.1869 -8.86297 -0.0138106 0 200 0
-30.1855 -8.86776 -0.0140024 0 200 0
-30.1841 -8.87254 -0.0141942 0 200 0
-30.1826 -8.87733 -0.014386 0 200 0
-30.1812 -8.88211 -0.0145779 0 200 0
-30.1797 -8.8869 -0.0147697 0 200 0
-30.1783 -8.89168 -0.0149615 0 200 0
-30.1769 -8.89647 -0.0151533 0 200 0
-30.1754 -8.90125 -0.0153451 0 200 0
-30.174 -8.90604 -0.0155369 0 200 0
-30.1726 -8.91082 -0.0157287 0 200 0
-30.1711 -8.91561 -0.0159205 0 200 0
-30.1697 -8.92039 -0.0161124 0 200 0
-30.1682 -8.92518 -0.0163042 0 200 0
-30.1668 -8.92996 -0.016496 0 200 0
-30.1654 -8.93475 -0.0166878 0 200 0
-30.1639 -8.93953 -0.0168796 0 200 0
-30.1625 -8.94432 -0.0170714 0 200 0
-30.1611 -8.9491 -0.0172632 0 200 0
-30.1596 -8.95389 -0.0174551 0 200 0
-30.1582 -8.95867 -0.0176469 0 200 0
-30.1567 -8.96346 -0.0178387 0 200 0
-30.1553 -8.96824 -0.0180305 0 200 0
-30.1539 -8.97303 -0.0182223 0 200 0
-30.1524 -8.97781 -0.0184141 0 200 0
-30.151 -8.9826 -0.0186059 0 200 0
-30.1496 -8.98739 -0.0187978 0 200 0
-30.1481 -8.99217 -0.0189896 0 200 0
-31.5248 -8.82431 0 0 200 0
-31.5234 -8.82912 -0.000175357 0 200 0
-31.5221 -8.83393 -0.000350714 0 200 0
-31.5207 -8.83874 -0.000526071 0 200 0
-31.5194 -8.84355 -0.000701427 0 200 0
-31.518 -8.84836 -0.000876784 0 200 0
-31.5167 -8.85317 -0.00105214 0 200 0
-31.5153 -8.85798 -0.0012275 0 200 0
-31.514 -8.86279 -0.00140285 0 200 0
-31.5126 -8.8676 -0.00157821 0 200 0
-31.5113 -8.87241 -0.00175357 0 200 0
-31.5099 -8.87722 -0.00192893 0 200 0
-31.5085 -8.88203 -0.00210428 0 200 0
-31.5072 -8.88684 -0.00227964 0 200 0
-31.5058 -8.89165 -0.002455 0 200 0
-31.5045 -8.89646 -0.00263035 0 200 0
-31.5031 -8.90127 -0.00280571 0 200 0
-31.5018 -8.90608 -0.00298107 0 200 0
-31.5004 -8.91089 -0.00315642 0 200 0
-31.4991 -8.9157 -0.00333178 0 200 0
-31.4977 -8.92051 -0.00350714 0 200 0
-31.4964 -8.92532 -0.00368249 0 200 0
-31.495 -8.93013 -0.00385785 0 200 0
-31.4937 -8.93494 -0.00403321 0 200 0
-31.4923 -8.93975 -0.00420856 0 200 0
-31.491 -8.94456 -0.00438392 0 200 0
-31.4896 -8.94937 -0.00455928 0 200 0
-31.4882 -8.95418 -0.00473464 0 200 0
-31.4869 -8.95899 -0.00490999 0 200 0
-31.4855 -8.9638 -0.00508535 0 200 0
-31.4842 -8.96861 -0.00526071 0 200 0
-31.4828 -8.97342 -0.00543606 0 200 0
-31.4815 -8.97823 -0.00561142 0 200 0
-31.4801 -8.98304 -0.00578678 0 200 0
-31.4788 -8.98785 -0.00596213 0 200 0
-31.4774 -8.99266 -0.00613749 0 200 0
-31.4761 -8.99747 -0.00631285 0 200 0
-31.4747 -9.00228 -0.0064882 0 200 0
-31.4734 -9.00709 -0.00666356 0 200 0
-31.472 -9.0119 -0.00683892 0 200 0
-31.4707 -9.01671 -0.00701427 0 200 0
-31.4693 -9.02152 -0.00718963 0 200 0
-31.4679 -9.02633 -0.00736499 0 200 0
-31.4666 -9.03114 -0.00754035 0 200 0
-31.4652 -9.03595 -0.0077157 0 200 0
-31.4639 -9.04076 -0.00789106 0 200 0
-31.4625 -9.04557 -0.00806642 0 200 0
-31.4612 -9.05038 -0.00824177 0 200 0
-31.4598 -9.05519 -0.00841713 0 200 0
-31.4585 -9.06 -0.00859249 0 200 0
-31.4571 -9.06481 -0.00876784 0 200 0
-31.4558 -9.06962 -0.0089432 0 200 0
-31.4544 -9.07443 -0.00911856 0 200 0
-31.4531 -9.07924 -0.00929391 0 200 0
-31.4517 -9.08405 -0.00946927 0 200 0
-31.4503 -9.08887 -0.00964463 0 200 0
-31.449 -9.09367 -0.00981998 0 200 0
-31.4476 -9.09848 -0.00999534 0 200 0
