ply
format ascii 1.0
element vertex 1292
property float x
property float y
property float z
property uchar red
property uchar green
property uchar blue
element face 0
property list uchar int vertex_indices
end_header
-36.3437 -37.942 -0.0378222 0 200 0
-36.3471 -37.9456 -0.0383475 0 200 0
-36.3505 -37.9493 -0.0388728 0 200 0
-36.3539 -37.9529 -0.0393981 0 200 0
-36.3573 -37.9566 -0.0399234 0 200 0
-36.3607 -37.9602 -0.0404487 0 200 0
-36.364 -37.9639 -0.040974 0 200 0
-36.3674 -37.9675 -0.0414993 0 200 0
-36.3708 -37.9711 -0.0420246 0 200 0
-36.3742 -37.9748 -0.04255 0 200 0
-36.3776 -37.9784 -0.0430753 0 200 0
-36.381 -37.9821 -0.0436006 0 200 0
-36.3843 -37.9857 -0.0441259 0 200 0
-36.3877 -37.9894 -0.0446512 0 200 0
-36.3911 -37.993 -0.0451765 0 200 0
-36.3945 -37.9967 -0.0457018 0 200 0
-36.3979 -38.0003 -0.0462271 0 200 0
-36.4013 -38.0039 -0.0467524 0 200 0
-36.4046 -38.0076 -0.0472777 0 200 0
-36.408 -38.0112 -0.047803 0 200 0
-36.4114 -38.0149 -0.0483283 0 200 0
-36.4148 -38.0185 -0.0488536 0 200 0
-36.4182 -38.0222 -0.049379 0 200 0
-36.4216 -38.0258 -0.0499043 0 200 0
-36.4249 -38.0294 -0.0504296 0 200 0
-36.4283 -38.0331 -0.0509549 0 200 0
-36.4317 -38.0367 -0.0514802 0 200 0
-36.4351 -38.0404 -0.0520055 0 200 0
-36.4715 -39.0311 0 0 200 0
-36.4758 -39.0335 -0.000492742 0 200 0
-36.4802 -39.0358 -0.000985483 0 200 0
-36.4846 -39.0382 -0.00147822 0 200 0
-36.4889 -39.0406 -0.00197097 0 200 0
-36.4933 -39.043 -0.00246371 0 200 0
-36.4977 -39.0454 -0.00295645 0 200 0
-36.502 -39.0478 -0.00344919 0 200 0
-36.5064 -39.0502 -0.00394193 0 200 0
-36.5108 -39.0526 -0.00443467 0 200 0
-36.5151 -39.055 -0.00492742 0 200 0
-36.5195 -39.0573 -0.00542016 0 200 0
-36.5239 -39.0597 -0.0059129 0 200 0
-36.5282 -39.0621 -0.00640564 0 200 0
-36.5326 -39.0645 -0.00689838 0 200 0
-36.5369 -39.0669 -0.00739112 0 200 0
-36.5413 -39.0693 -0.00788387 0 200 0
-36.5457 -39.0717 -0.00837661 0 200 0
-36.55 -39.0741 -0.00886935 0 200 0
-36.5544 -39.0764 -0.00936209 0 200 0
-36.5588 -39.0788 -0.00985483 0 200 0
-36.5631 -39.0812 -0.0103476 0 200 0
-36.5675 -39.0836 -0.0108403 0 200 0
-36.5719 -39.086 -0.0113331 0 200 0
-36.5762 -39.0884 -0.0118258 0 200 0
-36.5806 -39.0908 -0.0123185 0 200 0
-36.585 -39.0932 -0.0128113 0 200 0
-36.5893 -39.0955 -0.013304 0 200 0
-36.5937 -39.0979 -0.0137968 0 200 0
-36.5981 -39.1003 -0.0142895 0 200 0
-36.6024 -39.1027 -0.0147822 0 200 0
-36.6068 -39.1051 -0.015275 0 200 0
-36.6112 -39.1075 -0.0157677 0 200 0
-36.6155 -39.1099 -0.0162605 0 200 0
-36.6199 -39.1123 -0.0167532 0 200 0
-36.6243 -39.1146 -0.017246 0 200 0
-36.6286 -39.117 -0.0177387 0 200 0
-36.633 -39.1194 -0.0182314 0 200 0
-36.6373 -39.1218 -0.0187242 0 200 0
-36.6417 -39.1242 -0.0192169 0 200 0
-36.6461 -39.1266 -0.0197097 0 200 0
-36.6504 -39.129 -0.0202024 0 200 0
-36.6548 -39.1314 -0.0206951 0 200 0
-36.6592 -39.1338 -0.0211879 0 200 0
-36.6635 -39.1361 -0.0216806 0 200 0
-36.6679 -39.1385 -0.0221734 0 200 0
-36.6723 -39.1409 -0.0226661 0 200 0
-36.6766 -39.1433 -0.0231589 0 200 0
-36.681 -39.1457 -0.0236516 0 200 0
-36.6854 -39.1481 -0.0241443 0 200 0
-36.6897 -39.1505 -0.0246371 0 200 0
-36.6941 -39.1529 -0.0251298 0 200 0
-36.6985 -39.1552 -0.0256226 0 200 0
-36.7028 -39.1576 -0.0261153 0 200 0
-36.7072 -39.16 -0.026608 0 200 0
-36.7116 -39.1624 -0.0271008 0 200 0
-36.7159 -39.1648 -0.0275935 0 200 0
-36.7203 -39.1672 -0.0280863 0 200 0
-36.7247 -39.1696 -0.028579 0 200 0
-36.729 -39.172 -0.0290718 0 200 0
-36.7334 -39.1743 -0.0295645 0 200 0
-36.7377 -39.1767 -0.0300572 0 200 0
-36.7421 -39.1791 -0.03055 0 200 0
-36.7465 -39.1815 -0.0310427 0 200 0
-36.7508 -39.1839 -0.0315355 0 200 0
-36.7552 -39.1863 -0.0320282 0 200 0
-36.7596 -39.1887 -0.0325209 0 200 0
-36.7639 -39.1911 -0.0330137 0 200 0
-36.7683 -39.1935 -0.0335064 0 200 0
-36.7727 -39.1958 -0.0339992 0 200 0
-36.777 -39.1982 -0.0344919 0 200 0
-36.7814 -39.2006 -0.0349847 0 200 0
-36.7858 -39.203 -0.0354774 0 200 0
-36.7901 -39.2054 -0.0359701 0 200 0
-36.7945 -39.2078 -0.0364629 0 200 0
-36.7989 -39.2102 -0.0369556 0 200 0
-36.8032 -39.2126 -0.0374484 0 200 0
-36.8076 -39.2149 -0.0379411 0 200 0
-36.812 -39.2173 -0.0384338 0 200 0
-36.8163 -39.2197 -0.0389266 0 200 0
-36.8207 -39.2221 -0.0394193 0 200 0
-36.8251 -39.2245 -0.0399121 0 200 0
-36.8294 -39.2269 -0.0404048 0 200 0
-36.8338 -39.2293 -0.0408976 0 200 0
-36.8381 -39.2317 -0.0413903 0 200 0
-36.8425 -39.234 -0.041883 0 200 0
-36.8469 -39.2364 -0.0423758 0 200 0
-36.8512 -39.2388 -0.0428685 0 200 0
-36.8556 -39.2412 -0.0433613 0 200 0
-36.86 -39.2436 -0.043854 0 200 0
-36.8643 -39.246 -0.0443467 0 200 0
-36.8687 -39.2484 -0.0448395 0 200 0
-36.8731 -39.2508 -0.0453322 0 200 0
-36.8774 -39.2532 -0.045825 0 200 0
-36.8818 -39.2555 -0.0463177 0 200 0
-36.8862 -39.2579 -0.0468105 0 200 0
-36.8905 -39.2603 -0.0473032 0 200 0
-36.8949 -39.2627 -0.0477959 0 200 0
-36.8993 -39.2651 -0.0482887 0 200 0
-36.9036 -39.2675 -0.0487814 0 200 0
-36.8975 -40.3723 0 0 200 0
-36.9022 -40.374 -0.000561632 0 200 0
-36.9069 -40.3757 -0.00112326 0 200 0
-36.9116 -40.3774 -0.00168489 0 200 0
-36.9162 -40.379 -0.00224653 0 200 0
-36.9209 -40.3807 -0.00280816 0 200 0
-36.9256 -40.3824 -0.00336979 0 200 0
-36.9302 -40.3841 -0.00393142 0 200 0
-36.9349 -40.3858 -0.00449305 0 200 0
-36.9396 -40.3875 -0.00505468 0 200 0
-36.9443 -40.3892 -0.00561632 0 200 0
-36.9489 -40.3908 -0.00617795 0 200 0
-36.9536 -40.3925 -0.00673958 0 200 0
-36.9583 -40.3942 -0.00730121 0 200 0
-36.963 -40.3959 -0.00786284 0 200 0
-36.9676 -40.3976 -0.00842447 0 200 0
-36.9723 -40.3993 -0.00898611 0 200 0
-36.977 -40.401 -0.00954774 0 200 0
-36.9817 -40.4026 -0.0101094 0 200 0
-36.9863 -40.4043 -0.010671 0 200 0
-36.991 -40.406 -0.0112326 0 200 0
-36.9957 -40.4077 -0.0117943 0 200 0
-37.0004 -40.4094 -0.0123559 0 200 0
-37.005 -40.4111 -0.0129175 0 200 0
-37.0097 -40.4128 -0.0134792 0 200 0
-37.0144 -40.4144 -0.0140408 0 200 0
-37.019 -40.4161 -0.0146024 0 200 0
-37.0237 -40.4178 -0.0151641 0 200 0
-37.0284 -40.4195 -0.0157257 0 200 0
-37.0331 -40.4212 -0.0162873 0 200 0
-37.0377 -40.4229 -0.0168489 0 200 0
-37.0424 -40.4246 -0.0174106 0 200 0
-37.0471 -40.4262 -0.0179722 0 200 0
-37.0518 -40.4279 -0.0185338 0 200 0
-37.0564 -40.4296 -0.0190955 0 200 0
-37.0611 -40.4313 -0.0196571 0 200 0
-37.0658 -40.433 -0.0202187 0 200 0
-37.0705 -40.4347 -0.0207804 0 200 0
-37.0751 -40.4364 -0.021342 0 200 0
-37.0798 -40.438 -0.0219036 0 200 0
-37.0845 -40.4397 -0.0224653 0 200 0
-37.0892 -40.4414 -0.0230269 0 200 0
-37.0938 -40.4431 -0.0235885 0 200 0
-37.0985 -40.4448 -0.0241502 0 200 0
-37.1032 -40.4465 -0.0247118 0 200 0
-37.1078 -40.4482 -0.0252734 0 200 0
-37.1125 -40.4498 -0.0258351 0 200 0
-37.1172 -40.4515 -0.0263967 0 200 0
-37.1219 -40.4532 -0.0269583 0 200 0
-37.1265 -40.4549 -0.0275199 0 200 0
-37.1312 -40.4566 -0.0280816 0 200 0
-37.1359 -40.4583 -0.0286432 0 200 0
-37.1406 -40.4599 -0.0292048 0 200 0
-37.1452 -40.4616 -0.0297665 0 200 0
-37.1499 -40.4633 -0.0303281 0 200 0
-37.1546 -40.465 -0.0308897 0 200 0
-37.1593 -40.4667 -0.0314514 0 200 0
-37.1639 -40.4684 -0.032013 0 200 0
-37.1686 -40.4701 -0.0325746 0 200 0
-37.1733 -40.4717 -0.0331363 0 200 0
-37.178 -40.4734 -0.0336979 0 200 0
-37.1826 -40.4751 -0.0342595 0 200 0
-37.1873 -40.4768 -0.0348212 0 200 0
-37.192 -40.4785 -0.0353828 0 200 0
-37.1966 -40.4802 -0.0359444 0 200 0
-37.2013 -40.4819 -0.036506 0 200 0
-37.206 -40.4835 -0.0370677 0 200 0
-37.2107 -40.4852 -0.0376293 0 200 0
-37.2153 -40.4869 -0.0381909 0 200 0
-37.22 -40.4886 -0.0387526 0 200 0
-37.2247 -40.4903 -0.0393142 0 200 0
-37.2294 -40.492 -0.0398758 0 200 0
-37.234 -40.4937 -0.0404375 0 200 0
-37.2387 -40.4953 -0.0409991 0 200 0
-37.2434 -40.497 -0.0415607 0 200 0
-37.2481 -40.4987 -0.0421224 0 200 0
-37.2527 -40.5004 -0.042684 0 200 0
-37.2574 -40.5021 -0.0432456 0 200 0
-37.2621 -40.5038 -0.0438073 0 200 0
-37.2668 -40.5055 -0.0443689 0 200 0
-37.2714 -40.5071 -0.0449305 0 200 0
-37.2761 -40.5088 -0.0454922 0 200 0
-37.2808 -40.5105 -0.0460538 0 200 0
-37.2854 -40.5122 -0.0466154 0 200 0
-37.2901 -40.5139 -0.0471771 0 200 0
-37.2948 -40.5156 -0.0477387 0 200 0
-37.2995 -40.5173 -0.0483003 0 200 0
-37.3041 -40.5189 -0.0488619 0 200 0
-37.3088 -40.5206 -0.0494236 0 200 0
-37.3135 -40.5223 -0.0499852 0 200 0
-37.3182 -40.524 -0.0505468 0 200 0
-37.3228 -40.5257 -0.0511085 0 200 0
-37.3275 -40.5274 -0.0516701 0 200 0
-37.3322 -40.5291 -0.0522317 0 200 0
-37.3369 -40.5307 -0.0527934 0 200 0
-37.3415 -40.5324 -0.053355 0 200 0
-37.3462 -40.5341 -0.0539166 0 200 0
-37.3509 -40.5358 -0.0544783 0 200 0
-37.3556 -40.5375 -0.0550399 0 200 0
-37.3602 -40.5392 -0.0556015 0 200 0
-37.3638 -41.7749 0 0 200 0
-37.3683 -41.7769 -0.000421145 0 200 0
-37.3729 -41.7789 -0.000842289 0 200 0
-37.3775 -41.7809 -0.00126343 0 200 0
-37.382 -41.7829 -0.00168458 0 200 0
-37.3866 -41.7849 -0.00210572 0 200 0
-37.3912 -41.7869 -0.00252687 0 200 0
-37.3957 -41.7888 -0.00294801 0 200 0
-37.4003 -41.7908 -0.00336916 0 200 0
-37.4049 -41.7928 -0.0037903 0 200 0
-37.4094 -41.7948 -0.00421145 0 200 0
-37.414 -41.7968 -0.00463259 0 200 0
-37.4186 -41.7988 -0.00505373 0 200 0
-37.4231 -41.8008 -0.00547488 0 200 0
-37.4277 -41.8028 -0.00589602 0 200 0
-37.4323 -41.8048 -0.00631717 0 200 0
-37.4368 -41.8067 -0.00673831 0 200 0
-37.4414 -41.8087 -0.00715946 0 200 0
-37.446 -41.8107 -0.0075806 0 200 0
-37.4506 -41.8127 -0.00800175 0 200 0
-37.4551 -41.8147 -0.00842289 0 200 0
-37.4597 -41.8167 -0.00884404 0 200 0
-37.4643 -41.8187 -0.00926518 0 200 0
-37.4688 -41.8207 -0.00968632 0 200 0
-37.4734 -41.8226 -0.0101075 0 200 0
-37.478 -41.8246 -0.0105286 0 200 0
-37.4825 -41.8266 -0.0109498 0 200 0
-37.4871 -41.8286 -0.0113709 0 200 0
-37.4917 -41.8306 -0.011792 0 200 0
-37.4962 -41.8326 -0.0122132 0 200 0
-37.5008 -41.8346 -0.0126343 0 200 0
-37.5054 -41.8366 -0.0130555 0 200 0
-37.5099 -41.8385 -0.0134766 0 200 0
-37.5145 -41.8405 -0.0138978 0 200 0
-37.5191 -41.8425 -0.0143189 0 200 0
-37.5236 -41.8445 -0.0147401 0 200 0
-37.5282 -41.8465 -0.0151612 0 200 0
-37.5328 -41.8485 -0.0155823 0 200 0
-37.5374 -41.8505 -0.0160035 0 200 0
-37.5419 -41.8525 -0.0164246 0 200 0
-37.5465 -41.8545 -0.0168458 0 200 0
-37.5511 -41.8564 -0.0172669 0 200 0
-37.5556 -41.8584 -0.0176881 0 200 0
-37.5602 -41.8604 -0.0181092 0 200 0
-37.5648 -41.8624 -0.0185304 0 200 0
-37.5693 -41.8644 -0.0189515 0 200 0
-37.5739 -41.8664 -0.0193726 0 200 0
-37.5785 -41.8684 -0.0197938 0 200 0
-37.583 -41.8704 -0.0202149 0 200 0
-37.5876 -41.8723 -0.0206361 0 200 0
-37.5922 -41.8743 -0.0210572 0 200 0
-37.5967 -41.8763 -0.0214784 0 200 0
-37.6013 -41.8783 -0.0218995 0 200 0
-37.6059 -41.8803 -0.0223207 0 200 0
-37.6104 -41.8823 -0.0227418 0 200 0
-37.615 -41.8843 -0.0231629 0 200 0
-37.6196 -41.8863 -0.0235841 0 200 0
-37.6242 -41.8882 -0.0240052 0 200 0
-37.6287 -41.8902 -0.0244264 0 200 0
-37.6333 -41.8922 -0.0248475 0 200 0
-37.6379 -41.8942 -0.0252687 0 200 0
-37.6424 -41.8962 -0.0256898 0 200 0
-37.647 -41.8982 -0.026111 0 200 0
-37.6516 -41.9002 -0.0265321 0 200 0
-37.6561 -41.9022 -0.0269533 0 200 0
-37.6607 -41.9042 -0.0273744 0 200 0
-37.6653 -41.9061 -0.0277955 0 200 0
-37.6698 -41.9081 -0.0282167 0 200 0
-37.6744 -41.9101 -0.0286378 0 200 0
-37.679 -41.9121 -0.029059 0 200 0
-37.6835 -41.9141 -0.0294801 0 200 0
-37.6881 -41.9161 -0.0299013 0 200 0
-37.6927 -41.9181 -0.0303224 0 200 0
-37.6972 -41.9201 -0.0307436 0 200 0
-37.7018 -41.922 -0.0311647 0 200 0
-37.7064 -41.924 -0.0315858 0 200 0
-37.711 -41.926 -0.032007 0 200 0
-37.7155 -41.928 -0.0324281 0 200 0
-37.7201 -41.93 -0.0328493 0 200 0
-37.7247 -41.932 -0.0332704 0 200 0
-37.7292 -41.934 -0.0336916 0 200 0
-37.7338 -41.936 -0.0341127 0 200 0
-37.7384 -41.938 -0.0345339 0 200 0
-37.7429 -41.9399 -0.034955 0 200 0
-37.7475 -41.9419 -0.0353761 0 200 0
-37.7521 -41.9439 -0.0357973 0 200 0
-37.7566 -41.9459 -0.0362184 0 200 0
-37.7612 -41.9479 -0.0366396 0 200 0
-37.7658 -41.9499 -0.0370607 0 200 0
-37.7703 -41.9519 -0.0374819 0 200 0
-37.7749 -41.9539 -0.037903 0 200 0
-37.7795 -41.9558 -0.0383242 0 200 0
-37.784 -41.9578 -0.0387453 0 200 0
-37.7886 -41.9598 -0.0391664 0 200 0
-37.7932 -41.9618 -0.0395876 0 200 0
-37.7978 -41.9638 -0.0400087 0 200 0
-37.8023 -41.9658 -0.0404299 0 200 0
-37.8069 -41.9678 -0.040851 0 200 0
-37.8115 -41.9698 -0.0412722 0 200 0
-37.816 -41.9717 -0.0416933 0 200 0
-38.0026 -43.1143 0 0 200 0
-38.0074 -43.1157 -0.000394961 0 200 0
-38.0121 -43.1172 -0.000789923 0 200 0
-38.0169 -43.1186 -0.00118488 0 200 0
-38.0217 -43.1201 -0.00157985 0 200 0
-38.0264 -43.1215 -0.00197481 0 200 0
-38.0312 -43.1229 -0.00236977 0 200 0
-38.036 -43.1244 -0.00276473 0 200 0
-38.0408 -43.1258 -0.00315969 0 200 0
-38.0455 -43.1273 -0.00355465 0 200 0
-38.0503 -43.1287 -0.00394961 0 200 0
-38.0551 -43.1301 -0.00434458 0 200 0
-38.0598 -43.1316 -0.00473954 0 200 0
-38.0646 -43.133 -0.0051345 0 200 0
-38.0694 -43.1345 -0.00552946 0 200 0
-38.0742 -43.1359 -0.00592442 0 200 0
-38.0789 -43.1373 -0.00631938 0 200 0
-38.0837 -43.1388 -0.00671434 0 200 0
-38.0885 -43.1402 -0.00710931 0 200 0
-38.0932 -43.1417 -0.00750427 0 200 0
-38.098 -43.1431 -0.00789923 0 200 0
-38.1028 -43.1446 -0.00829419 0 200 0
-38.1076 -43.146 -0.00868915 0 200 0
-38.1123 -43.1474 -0.00908411 0 200 0
-38.1171 -43.1489 -0.00947907 0 200 0
-38.1219 -43.1503 -0.00987404 0 200 0
-38.1266 -43.1518 -0.010269 0 200 0
-38.1314 -43.1532 -0.010664 0 200 0
-38.1362 -43.1546 -0.0110589 0 200 0
-38.141 -43.1561 -0.0114539 0 200 0
-38.1457 -43.1575 -0.0118488 0 200 0
-38.1505 -43.159 -0.0122438 0 200 0
-38.1553 -43.1604 -0.0126388 0 200 0
-38.16 -43.1618 -0.0130337 0 200 0
-38.1648 -43.1633 -0.0134287 0 200 0
-38.1696 -43.1647 -0.0138236 0 200 0
-38.1744 -43.1662 -0.0142186 0 200 0
-38.1791 -43.1676 -0.0146136 0 200 0
-38.1839 -43.169 -0.0150085 0 200 0
-38.1887 -43.1705 -0.0154035 0 200 0
-38.1935 -43.1719 -0.0157985 0 200 0
-38.1982 -43.1734 -0.0161934 0 200 0
-38.203 -43.1748 -0.0165884 0 200 0
-38.2078 -43.1762 -0.0169833 0 200 0
-38.2125 -43.1777 -0.0173783 0 200 0
-38.2173 -43.1791 -0.0177733 0 200 0
-38.2221 -43.1806 -0.0181682 0 200 0
-38.2269 -43.182 -0.0185632 0 200 0
-38.2316 -43.1834 -0.0189581 0 200 0
-38.2364 -43.1849 -0.0193531 0 200 0
-38.2412 -43.1863 -0.0197481 0 200 0
-38.2459 -43.1878 -0.020143 0 200 0
-38.2507 -43.1892 -0.020538 0 200 0
-38.2555 -43.1906 -0.020933 0 200 0
-38.2603 -43.1921 -0.0213279 0 200 0
-38.265 -43.1935 -0.0217229 0 200 0
-38.2698 -43.195 -0.0221178 0 200 0
-38.2746 -43.1964 -0.0225128 0 200 0
-38.2793 -43.1978 -0.0229078 0 200 0
-38.2841 -43.1993 -0.0233027 0 200 0
-38.2889 -43.2007 -0.0236977 0 200 0
-38.2937 -43.2022 -0.0240926 0 200 0
-38.2984 -43.2036 -0.0244876 0 200 0
-38.3032 -43.2051 -0.0248826 0 200 0
-38.308 -43.2065 -0.0252775 0 200 0
-38.3127 -43.2079 -0.0256725 0 200 0
-38.3175 -43.2094 -0.0260675 0 200 0
-38.3223 -43.2108 -0.0264624 0 200 0
-38.3271 -43.2123 -0.0268574 0 200 0
-38.3318 -43.2137 -0.0272523 0 200 0
-38.3366 -43.2151 -0.0276473 0 200 0
-38.3414 -43.2166 -0.0280423 0 200 0
-38.3461 -43.218 -0.0284372 0 200 0
-38.3509 -43.2195 -0.0288322 0 200 0
-38.3557 -43.2209 -0.0292271 0 200 0
-38.3605 -43.2223 -0.0296221 0 200 0
-38.3652 -43.2238 -0.0300171 0 200 0
-38.37 -43.2252 -0.030412 0 200 0
-38.3748 -43.2267 -0.030807 0 200 0
-38.3795 -43.2281 -0.031202 0 200 0
-38.3843 -43.2295 -0.0315969 0 200 0
-38.3891 -43.231 -0.0319919 0 200 0
-38.3939 -43.2324 -0.0323868 0 200 0
-38.3986 -43.2339 -0.0327818 0 200 0
-38.4034 -43.2353 -0.0331768 0 200 0
-38.4082 -43.2367 -0.0335717 0 200 0
-38.4129 -43.2382 -0.0339667 0 200 0
-38.4177 -43.2396 -0.0343616 0 200 0
-38.4225 -43.2411 -0.0347566 0 200 0
-38.4273 -43.2425 -0.0351516 0 200 0
-38.432 -43.2439 -0.0355465 0 200 0
-38.4368 -43.2454 -0.0359415 0 200 0
-38.4416 -43.2468 -0.0363365 0 200 0
-38.4463 -43.2483 -0.0367314 0 200 0
-38.4511 -43.2497 -0.0371264 0 200 0
-38.4559 -43.2512 -0.0375213 0 200 0
-38.4607 -43.2526 -0.0379163 0 200 0
-38.4654 -43.254 -0.0383113 0 200 0
-38.4702 -43.2555 -0.0387062 0 200 0
-38.475 -43.2569 -0.0391012 0 200 0
-38.8261 -44.4422 0 0 200 0
-38.8308 -44.4438 -0.000401757 0 200 0
-38.8355 -44.4454 -0.000803514 0 200 0
-38.8402 -44.447 -0.00120527 0 200 0
-38.8449 -44.4486 -0.00160703 0 200 0
-38.8497 -44.4502 -0.00200879 0 200 0
-38.8544 -44.4518 -0.00241054 0 200 0
-38.8591 -44.4534 -0.0028123 0 200 0
-38.8638 -44.455 -0.00321406 0 200 0
-38.8685 -44.4566 -0.00361581 0 200 0
-38.8733 -44.4582 -0.00401757 0 200 0
-38.878 -44.4598 -0.00441933 0 200 0
-38.8827 -44.4614 -0.00482109 0 200 0
-38.8874 -44.463 -0.00522284 0 200 0
-38.8921 -44.4646 -0.0056246 0 200 0
-38.8969 -44.4662 -0.00602636 0 200 0
-38.9016 -44.4678 -0.00642812 0 200 0
-38.9063 -44.4694 -0.00682987 0 200 0
-38.911 -44.471 -0.00723163 0 200 0
-38.9157 -44.4726 -0.00763339 0 200 0
-38.9205 -44.4742 -0.00803514 0 200 0
-38.9252 -44.4758 -0.0084369 0 200 0
-38.9299 -44.4774 -0.00883866 0 200 0
-38.9346 -44.479 -0.00924042 0 200 0
-38.9393 -44.4806 -0.00964217 0 200 0
-38.9441 -44.4822 -0.0100439 0 200 0
-38.9488 -44.4838 -0.0104457 0 200 0
-38.9535 -44.4854 -0.0108474 0 200 0
-38.9582 -44.487 -0.0112492 0 200 0
-38.9629 -44.4886 -0.011651 0 200 0
-38.9677 -44.4902 -0.0120527 0 200 0
-38.9724 -44.4918 -0.0124545 0 200 0
-38.9771 -44.4934 -0.0128562 0 200 0
-38.9818 -44.495 -0.013258 0 200 0
-38.9865 -44.4966 -0.0136597 0 200 0
-38.9913 -44.4982 -0.0140615 0 200 0
-38.996 -44.4998 -0.0144633 0 200 0
-39.0007 -44.5014 -0.014865 0 200 0
-39.0054 -44.503 -0.0152668 0 200 0
-39.0101 -44.5046 -0.0156685 0 200 0
-39.0149 -44.5062 -0.0160703 0 200 0
-39.0196 -44.5078 -0.016472 0 200 0
-39.0243 -44.5094 -0.0168738 0 200 0
-39.029 -44.511 -0.0172756 0 200 0
-39.0337 -44.5126 -0.0176773 0 200 0
-39.0384 -44.5142 -0.0180791 0 200 0
-39.0432 -44.5158 -0.0184808 0 200 0
-39.0479 -44.5174 -0.0188826 0 200 0
-39.0526 -44.519 -0.0192843 0 200 0
-39.0573 -44.5206 -0.0196861 0 200 0
-39.062 -44.5222 -0.0200879 0 200 0
-39.0668 -44.5238 -0.0204896 0 200 0
-39.0715 -44.5254 -0.0208914 0 200 0
-39.0762 -44.527 -0.0212931 0 200 0
-39.0809 -44.5286 -0.0216949 0 200 0
-39.0856 -44.5302 -0.0220966 0 200 0
-39.0904 -44.5318 -0.0224984 0 200 0
-39.0951 -44.5334 -0.0229002 0 200 0
-39.0998 -44.535 -0.0233019 0 200 0
-39.1045 -44.5366 -0.0237037 0 200 0
-39.1092 -44.5382 -0.0241054 0 200 0
-39.114 -44.5398 -0.0245072 0 200 0
-39.1187 -44.5414 -0.0249089 0 200 0
-39.1234 -44.543 -0.0253107 0 200 0
-39.1281 -44.5446 -0.0257125 0 200 0
-39.1328 -44.5462 -0.0261142 0 200 0
-39.1376 -44.5478 -0.026516 0 200 0
-39.1423 -44.5494 -0.0269177 0 200 0
-39.147 -44.5511 -0.0273195 0 200 0
-39.1517 -44.5527 -0.0277212 0 200 0
-39.1564 -44.5543 -0.028123 0 200 0
-39.1612 -44.5559 -0.0285248 0 200 0
-39.1659 -44.5575 -0.0289265 0 200 0
-39.1706 -44.5591 -0.0293283 0 200 0
-39.1753 -44.5607 -0.02973 0 200 0
-39.18 -44.5623 -0.0301318 0 200 0
-39.1848 -44.5639 -0.0305335 0 200 0
-39.1895 -44.5655 -0.0309353 0 200 0
-39.1942 -44.5671 -0.0313371 0 200 0
-39.1989 -44.5687 -0.0317388 0 200 0
-39.2036 -44.5703 -0.0321406 0 200 0
-39.2084 -44.5719 -0.0325423 0 200 0
-39.2131 -44.5735 -0.0329441 0 200 0
-39.2178 -44.5751 -0.0333458 0 200 0
-39.2225 -44.5767 -0.0337476 0 200 0
-39.2272 -44.5783 -0.0341494 0 200 0
-39.232 -44.5799 -0.0345511 0 200 0
-39.2367 -44.5815 -0.0349529 0 200 0
-39.2414 -44.5831 -0.0353546 0 200 0
-39.2461 -44.5847 -0.0357564 0 200 0
-39.2508 -44.5863 -0.0361581 0 200 0
-39.2556 -44.5879 -0.0365599 0 200 0
-39.2603 -44.5895 -0.0369617 0 200 0
-39.265 -44.5911 -0.0373634 0 200 0
-39.2697 -44.5927 -0.0377652 0 200 0
-39.2744 -44.5943 -0.0381669 0 200 0
-39.2792 -44.5959 -0.0385687 0 200 0
-39.2839 -44.5975 -0.0389704 0 200 0
-39.2886 -44.5991 -0.0393722 0 200 0
-39.2933 -44.6007 -0.039774 0 200 0
-39.7869 -45.7189 0 0 200 0
-39.7914 -45.7208 -0.000523535 0 200 0
-39.796 -45.7228 -0.00104707 0 200 0
-39.8006 -45.7247 -0.0015706 0 200 0
-39.8052 -45.7266 -0.00209414 0 200 0
-39.8098 -45.7286 -0.00261767 0 200 0
-39.8143 -45.7305 -0.00314121 0 200 0
-39.8189 -45.7324 -0.00366474 0 200 0
-39.8235 -45.7344 -0.00418828 0 200 0
-39.8281 -45.7363 -0.00471181 0 200 0
-39.8327 -45.7383 -0.00523535 0 200 0
-39.8372 -45.7402 -0.00575888 0 200 0
-39.8418 -45.7421 -0.00628242 0 200 0
-39.8464 -45.7441 -0.00680595 0 200 0
-39.851 -45.746 -0.00732949 0 200 0
-39.8556 -45.7479 -0.00785302 0 200 0
-39.8601 -45.7499 -0.00837655 0 200 0
-39.8647 -45.7518 -0.00890009 0 200 0
-39.8693 -45.7537 -0.00942362 0 200 0
-39.8739 -45.7557 -0.00994716 0 200 0
-39.8785 -45.7576 -0.0104707 0 200 0
-39.883 -45.7596 -0.0109942 0 200 0
-39.8876 -45.7615 -0.0115178 0 200 0
-39.8922 -45.7634 -0.0120413 0 200 0
-39.8968 -45.7654 -0.0125648 0 200 0
-39.9014 -45.7673 -0.0130884 0 200 0
-39.9059 -45.7692 -0.0136119 0 200 0
-39.9105 -45.7712 -0.0141354 0 200 0
-39.9151 -45.7731 -0.014659 0 200 0
-39.9197 -45.7751 -0.0151825 0 200 0
-39.9242 -45.777 -0.015706 0 200 0
-39.9288 -45.7789 -0.0162296 0 200 0
-39.9334 -45.7809 -0.0167531 0 200 0
-39.938 -45.7828 -0.0172766 0 200 0
-39.9426 -45.7847 -0.0178002 0 200 0
-39.9471 -45.7867 -0.0183237 0 200 0
-39.9517 -45.7886 -0.0188472 0 200 0
-39.9563 -45.7906 -0.0193708 0 200 0
-39.9609 -45.7925 -0.0198943 0 200 0
-39.9655 -45.7944 -0.0204179 0 200 0
-39.97 -45.7964 -0.0209414 0 200 0
-39.9746 -45.7983 -0.0214649 0 200 0
-39.9792 -45.8002 -0.0219885 0 200 0
-39.9838 -45.8022 -0.022512 0 200 0
-39.9884 -45.8041 -0.0230355 0 200 0
-39.9929 -45.806 -0.0235591 0 200 0
-39.9975 -45.808 -0.0240826 0 200 0
-40.0021 -45.8099 -0.0246061 0 200 0
-40.0067 -45.8119 -0.0251297 0 200 0
-40.0113 -45.8138 -0.0256532 0 200 0
-40.0158 -45.8157 -0.0261767 0 200 0
-40.0204 -45.8177 -0.0267003 0 200 0
-40.025 -45.8196 -0.0272238 0 200 0
-40.0296 -45.8215 -0.0277473 0 200 0
-40.0342 -45.8235 -0.0282709 0 200 0
-40.0387 -45.8254 -0.0287944 0 200 0
-40.0433 -45.8274 -0.0293179 0 200 0
-40.0479 -45.8293 -0.0298415 0 200 0
-40.0525 -45.8312 -0.030365 0 200 0
-40.0571 -45.8332 -0.0308885 0 200 0
-40.0616 -45.8351 -0.0314121 0 200 0
-40.0662 -45.837 -0.0319356 0 200 0
-40.0708 -45.839 -0.0324591 0 200 0
-40.0754 -45.8409 -0.0329827 0 200 0
-40.08 -45.8429 -0.0335062 0 200 0
-40.0845 -45.8448 -0.0340298 0 200 0
-40.0891 -45.8467 -0.0345533 0 200 0
-40.0937 -45.8487 -0.0350768 0 200 0
-40.0983 -45.8506 -0.0356004 0 200 0
-40.1029 -45.8525 -0.0361239 0 200 0
-40.1074 -45.8545 -0.0366474 0 200 0
-40.112 -45.8564 -0.037171 0 200 0
-40.1166 -45.8583 -0.0376945 0 200 0
-40.1212 -45.8603 -0.038218 0 200 0
-40.1258 -45.8622 -0.0387416 0 200 0
-40.1303 -45.8642 -0.0392651 0 200 0
-40.1349 -45.8661 -0.0397886 0 200 0
-40.1395 -45.868 -0.0403122 0 200 0
-40.1441 -45.87 -0.0408357 0 200 0
-40.1487 -45.8719 -0.0413592 0 200 0
-40.1532 -45.8738 -0.0418828 0 200 0
-40.1578 -45.8758 -0.0424063 0 200 0
-40.1624 -45.8777 -0.0429298 0 200 0
-40.167 -45.8797 -0.0434534 0 200 0
-40.1716 -45.8816 -0.0439769 0 200 0
-40.1761 -45.8835 -0.0445004 0 200 0
-40.1807 -45.8855 -0.045024 0 200 0
-40.1853 -45.8874 -0.0455475 0 200 0
-40.1899 -45.8893 -0.046071 0 200 0
-40.1945 -45.8913 -0.0465946 0 200 0
-40.199 -45.8932 -0.0471181 0 200 0
-40.2036 -45.8952 -0.0476417 0 200 0
-40.2082 -45.8971 -0.0481652 0 200 0
-40.2128 -45.899 -0.0486887 0 200 0
-40.2174 -45.901 -0.0492123 0 200 0
-40.2219 -45.9029 -0.0497358 0 200 0
-40.2265 -45.9048 -0.0502593 0 200 0
-40.2311 -45.9068 -0.0507829 0 200 0
-40.2357 -45.9087 -0.0513064 0 200 0
-40.2402 -45.9106 -0.0518299 0 200 0
-40.9265 -46.9372 0 0 200 0
-40.931 -46.9392 -0.000654453 0 200 0
-40.9356 -46.9412 -0.00130891 0 200 0
-40.9401 -46.9432 -0.00196336 0 200 0
-40.9446 -46.9452 -0.00261781 0 200 0
-40.9492 -46.9472 -0.00327226 0 200 0
-40.9537 -46.9492 -0.00392672 0 200 0
-40.9583 -46.9512 -0.00458117 0 200 0
-40.9628 -46.9532 -0.00523562 0 200 0
-40.9673 -46.9552 -0.00589007 0 200 0
-40.9719 -46.9572 -0.00654453 0 200 0
-40.9764 -46.9592 -0.00719898 0 200 0
-40.9809 -46.9612 -0.00785343 0 200 0
-40.9855 -46.9632 -0.00850788 0 200 0
-40.99 -46.9652 -0.00916234 0 200 0
-40.9945 -46.9672 -0.00981679 0 200 0
-40.9991 -46.9692 -0.0104712 0 200 0
-41.0036 -46.9712 -0.0111257 0 200 0
-41.0082 -46.9732 -0.0117801 0 200 0
-41.0127 -46.9752 -0.0124346 0 200 0
-41.0172 -46.9772 -0.0130891 0 200 0
-41.0218 -46.9792 -0.0137435 0 200 0
-41.0263 -46.9812 -0.014398 0 200 0
-41.0308 -46.9832 -0.0150524 0 200 0
-41.0354 -46.9852 -0.0157069 0 200 0
-41.0399 -46.9872 -0.0163613 0 200 0
-41.0444 -46.9892 -0.0170158 0 200 0
-41.049 -46.9912 -0.0176702 0 200 0
-41.0535 -46.9932 -0.0183247 0 200 0
-41.0581 -46.9952 -0.0189791 0 200 0
-41.0626 -46.9971 -0.0196336 0 200 0
-41.0671 -46.9991 -0.020288 0 200 0
-41.0717 -47.0011 -0.0209425 0 200 0
-41.0762 -47.0031 -0.0215969 0 200 0
-41.0807 -47.0051 -0.0222514 0 200 0
-41.0853 -47.0071 -0.0229058 0 200 0
-41.0898 -47.0091 -0.0235603 0 200 0
-41.0943 -47.0111 -0.0242147 0 200 0
-41.0989 -47.0131 -0.0248692 0 200 0
-41.1034 -47.0151 -0.0255237 0 200 0
-41.108 -47.0171 -0.0261781 0 200 0
-41.1125 -47.0191 -0.0268326 0 200 0
-41.117 -47.0211 -0.027487 0 200 0
-41.1216 -47.0231 -0.0281415 0 200 0
-41.1261 -47.0251 -0.0287959 0 200 0
-41.1306 -47.0271 -0.0294504 0 200 0
-41.1352 -47.0291 -0.0301048 0 200 0
-41.1397 -47.0311 -0.0307593 0 200 0
-41.1442 -47.0331 -0.0314137 0 200 0
-41.1488 -47.0351 -0.0320682 0 200 0
-41.1533 -47.0371 -0.0327226 0 200 0
-41.1579 -47.0391 -0.0333771 0 200 0
-41.1624 -47.0411 -0.0340315 0 200 0
-41.1669 -47.0431 -0.034686 0 200 0
-41.1715 -47.0451 -0.0353404 0 200 0
-41.176 -47.0471 -0.0359949 0 200 0
-41.1805 -47.0491 -0.0366494 0 200 0
-41.1851 -47.0511 -0.0373038 0 200 0
-41.1896 -47.0531 -0.0379583 0 200 0
-41.1941 -47.0551 -0.0386127 0 200 0
-41.1987 -47.0571 -0.0392672 0 200 0
-41.2032 -47.0591 -0.0399216 0 200 0
-41.2078 -47.0611 -0.0405761 0 200 0
-41.2123 -47.0631 -0.0412305 0 200 0
-41.2168 -47.0651 -0.041885 0 200 0
-41.2214 -47.0671 -0.0425394 0 200 0
-41.2259 -47.0691 -0.0431939 0 200 0
-41.2304 -47.0711 -0.0438483 0 200 0
-41.235 -47.0731 -0.0445028 0 200 0
-41.2395 -47.0751 -0.0451572 0 200 0
-41.244 -47.0771 -0.0458117 0 200 0
-41.2486 -47.0791 -0.0464661 0 200 0
-41.2531 -47.0811 -0.0471206 0 200 0
-41.2577 -47.0831 -0.047775 0 200 0
-41.2622 -47.0851 -0.0484295 0 200 0
-41.2667 -47.0871 -0.0490839 0 200 0
-41.2713 -47.0891 -0.0497384 0 200 0
-41.2758 -47.0911 -0.0503929 0 200 0
-41.2803 -47.0931 -0.0510473 0 200 0
-41.2849 -47.0951 -0.0517018 0 200 0
-41.2894 -47.0971 -0.0523562 0 200 0
-41.2939 -47.0991 -0.0530107 0 200 0
-41.2985 -47.101 -0.0536651 0 200 0
-41.303 -47.103 -0.0543196 0 200 0
-41.3076 -47.105 -0.054974 0 200 0
-41.3121 -47.107 -0.0556285 0 200 0
-41.3166 -47.109 -0.0562829 0 200 0
-41.3212 -47.111 -0.0569374 0 200 0
-41.3257 -47.113 -0.0575918 0 200 0
-41.3302 -47.115 -0.0582463 0 200 0
-41.3348 -47.117 -0.0589007 0 200 0
-41.3393 -47.119 -0.0595552 0 200 0
-41.3438 -47.121 -0.0602096 0 200 0
-41.3484 -47.123 -0.0608641 0 200 0
-41.3529 -47.125 -0.0615185 0 200 0
-41.3575 -47.127 -0.062173 0 200 0
-41.362 -47.129 -0.0628275 0 200 0
-41.3665 -47.131 -0.0634819 0 200 0
-41.3711 -47.133 -0.0641364 0 200 0
-41.3756 -47.135 -0.0647908 0 200 0
-42.1263 -48.2116 0 0 200 0
-42.131 -48.2132 -0.000753478 0 200 0
-42.1356 -48.2149 -0.00150696 0 200 0
-42.1402 -48.2166 -0.00226043 0 200 0
-42.1449 -48.2183 -0.00301391 0 200 0
-42.1495 -48.22 -0.00376739 0 200 0
-42.1542 -48.2217 -0.00452086 0 200 0
-42.1588 -48.2234 -0.00527434 0 200 0
-42.1635 -48.2251 -0.00602782 0 200 0
-42.1681 -48.2268 -0.0067813 0 200 0
-42.1727 -48.2285 -0.00753477 0 200 0
-42.1774 -48.2302 -0.00828825 0 200 0
-42.182 -48.2319 -0.00904173 0 200 0
-42.1867 -48.2336 -0.00979521 0 200 0
-42.1913 -48.2353 -0.0105487 0 200 0
-42.196 -48.2369 -0.0113022 0 200 0
-42.2006 -48.2386 -0.0120556 0 200 0
-42.2053 -48.2403 -0.0128091 0 200 0
-42.2099 -48.242 -0.0135626 0 200 0
-42.2145 -48.2437 -0.0143161 0 200 0
-42.2192 -48.2454 -0.0150695 0 200 0
-42.2238 -48.2471 -0.015823 0 200 0
-42.2285 -48.2488 -0.0165765 0 200 0
-42.2331 -48.2505 -0.01733 0 200 0
-42.2378 -48.2522 -0.0180835 0 200 0
-42.2424 -48.2539 -0.0188369 0 200 0
-42.2471 -48.2556 -0.0195904 0 200 0
-42.2517 -48.2573 -0.0203439 0 200 0
-42.2563 -48.259 -0.0210974 0 200 0
-42.261 -48.2607 -0.0218508 0 200 0
-42.2656 -48.2623 -0.0226043 0 200 0
-42.2703 -48.264 -0.0233578 0 200 0
-42.2749 -48.2657 -0.0241113 0 200 0
-42.2796 -48.2674 -0.0248648 0 200 0
-42.2842 -48.2691 -0.0256182 0 200 0
-42.2888 -48.2708 -0.0263717 0 200 0
-42.2935 -48.2725 -0.0271252 0 200 0
-42.2981 -48.2742 -0.0278787 0 200 0
-42.3028 -48.2759 -0.0286321 0 200 0
-42.3074 -48.2776 -0.0293856 0 200 0
-42.3121 -48.2793 -0.0301391 0 200 0
-42.3167 -48.281 -0.0308926 0 200 0
-42.3214 -48.2827 -0.0316461 0 200 0
-42.326 -48.2843 -0.0323995 0 200 0
-42.3306 -48.286 -0.033153 0 200 0
-42.3353 -48.2877 -0.0339065 0 200 0
-42.3399 -48.2894 -0.03466 0 200 0
-42.3446 -48.2911 -0.0354134 0 200 0
-42.3492 -48.2928 -0.0361669 0 200 0
-42.3539 -48.2945 -0.0369204 0 200 0
-42.3585 -48.2962 -0.0376739 0 200 0
-42.3632 -48.2979 -0.0384274 0 200 0
-42.3678 -48.2996 -0.0391808 0 200 0
-42.3724 -48.3013 -0.0399343 0 200 0
-42.3771 -48.303 -0.0406878 0 200 0
-42.3817 -48.3047 -0.0414413 0 200 0
-42.3864 -48.3064 -0.0421947 0 200 0
-42.391 -48.308 -0.0429482 0 200 0
-42.3957 -48.3097 -0.0437017 0 200 0
-42.4003 -48.3114 -0.0444552 0 200 0
-42.4049 -48.3131 -0.0452086 0 200 0
-42.4096 -48.3148 -0.0459621 0 200 0
-42.4142 -48.3165 -0.0467156 0 200 0
-42.4189 -48.3182 -0.0474691 0 200 0
-42.4235 -48.3199 -0.0482226 0 200 0
-42.4282 -48.3216 -0.048976 0 200 0
-42.4328 -48.3233 -0.0497295 0 200 0
-42.4375 -48.325 -0.050483 0 200 0
-42.4421 -48.3267 -0.0512365 0 200 0
-42.4467 -48.3284 -0.0519899 0 200 0
-42.4514 -48.3301 -0.0527434 0 200 0
-42.456 -48.3317 -0.0534969 0 200 0
-42.4607 -48.3334 -0.0542504 0 200 0
-42.4653 -48.3351 -0.0550039 0 200 0
-42.47 -48.3368 -0.0557573 0 200 0
-42.4746 -48.3385 -0.0565108 0 200 0
-42.4792 -48.3402 -0.0572643 0 200 0
-42.4839 -48.3419 -0.0580178 0 200 0
-42.4885 -48.3436 -0.0587712 0 200 0
-42.4932 -48.3453 -0.0595247 0 200 0
-42.4978 -48.347 -0.0602782 0 200 0
-42.5025 -48.3487 -0.0610317 0 200 0
-42.5071 -48.3504 -0.0617852 0 200 0
-42.5118 -48.3521 -0.0625386 0 200 0
-42.5164 -48.3538 -0.0632921 0 200 0
-42.521 -48.3554 -0.0640456 0 200 0
-42.5257 -48.3571 -0.0647991 0 200 0
-42.5303 -48.3588 -0.0655525 0 200 0
-42.535 -48.3605 -0.066306 0 200 0
-42.5396 -48.3622 -0.0670595 0 200 0
-42.5443 -48.3639 -0.067813 0 200 0
-42.5489 -48.3656 -0.0685664 0 200 0
-42.5536 -48.3673 -0.0693199 0 200 0
-42.5582 -48.369 -0.0700734 0 200 0
-42.5628 -48.3707 -0.0708269 0 200 0
-42.5675 -48.3724 -0.0715804 0 200 0
-42.5721 -48.3741 -0.0723338 0 200 0
-42.5768 -48.3758 -0.0730873 0 200 0
-42.5814 -48.3775 -0.0738408 0 200 0
-42.5861 -48.3792 -0.0745943 0 200 0
-43.3743 -49.4429 0 0 200 0
-43.3788 -49.4451 -0.000713062 0 200 0
-43.3832 -49.4472 -0.00142612 0 200 0
-43.3877 -49.4494 -0.00213919 0 200 0
-43.3921 -49.4516 -0.00285225 0 200 0
-43.3966 -49.4537 -0.00356531 0 200 0
-43.401 -49.4559 -0.00427837 0 200 0
-43.4055 -49.458 -0.00499143 0 200 0
-43.4099 -49.4602 -0.00570449 0 200 0
-43.4144 -49.4624 -0.00641756 0 200 0
-43.4188 -49.4645 -0.00713062 0 200 0
-43.4233 -49.4667 -0.00784368 0 200 0
-43.4277 -49.4689 -0.00855674 0 200 0
-43.4322 -49.471 -0.0092698 0 200 0
-43.4366 -49.4732 -0.00998287 0 200 0
-43.4411 -49.4753 -0.0106959 0 200 0
-43.4455 -49.4775 -0.011409 0 200 0
-43.45 -49.4797 -0.0121221 0 200 0
-43.4544 -49.4818 -0.0128351 0 200 0
-43.4589 -49.484 -0.0135482 0 200 0
-43.4633 -49.4862 -0.0142612 0 200 0
-43.4678 -49.4883 -0.0149743 0 200 0
-43.4722 -49.4905 -0.0156874 0 200 0
-43.4767 -49.4926 -0.0164004 0 200 0
-43.4811 -49.4948 -0.0171135 0 200 0
-43.4856 -49.497 -0.0178265 0 200 0
-43.49 -49.4991 -0.0185396 0 200 0
-43.4945 -49.5013 -0.0192527 0 200 0
-43.4989 -49.5035 -0.0199657 0 200 0
-43.5034 -49.5056 -0.0206788 0 200 0
-43.5078 -49.5078 -0.0213919 0 200 0
-43.5123 -49.5099 -0.0221049 0 200 0
-43.5167 -49.5121 -0.022818 0 200 0
-43.5212 -49.5143 -0.023531 0 200 0
-43.5256 -49.5164 -0.0242441 0 200 0
-43.5301 -49.5186 -0.0249572 0 200 0
-43.5345 -49.5208 -0.0256702 0 200 0
-43.539 -49.5229 -0.0263833 0 200 0
-43.5434 -49.5251 -0.0270963 0 200 0
-43.5479 -49.5272 -0.0278094 0 200 0
-43.5524 -49.5294 -0.0285225 0 200 0
-43.5568 -49.5316 -0.0292355 0 200 0
-43.5613 -49.5337 -0.0299486 0 200 0
-43.5657 -49.5359 -0.0306617 0 200 0
-43.5702 -49.5381 -0.0313747 0 200 0
-43.5746 -49.5402 -0.0320878 0 200 0
-43.5791 -49.5424 -0.0328008 0 200 0
-43.5835 -49.5446 -0.0335139 0 200 0
-43.588 -49.5467 -0.034227 0 200 0
-43.5924 -49.5489 -0.03494 0 200 0
-43.5969 -49.551 -0.0356531 0 200 0
-43.6013 -49.5532 -0.0363662 0 200 0
-43.6058 -49.5554 -0.0370792 0 200 0
-43.6102 -49.5575 -0.0377923 0 200 0
-43.6147 -49.5597 -0.0385053 0 200 0
-43.6191 -49.5619 -0.0392184 0 200 0
-43.6236 -49.564 -0.0399315 0 200 0
-43.628 -49.5662 -0.0406445 0 200 0
-43.6325 -49.5683 -0.0413576 0 200 0
-43.6369 -49.5705 -0.0420706 0 200 0
-43.6414 -49.5727 -0.0427837 0 200 0
-43.6458 -49.5748 -0.0434968 0 200 0
-43.6503 -49.577 -0.0442098 0 200 0
-43.6547 -49.5792 -0.0449229 0 200 0
-43.6592 -49.5813 -0.045636 0 200 0
-43.6636 -49.5835 -0.046349 0 200 0
-43.6681 -49.5856 -0.0470621 0 200 0
-43.6725 -49.5878 -0.0477751 0 200 0
-43.677 -49.59 -0.0484882 0 200 0
-43.6814 -49.5921 -0.0492013 0 200 0
-43.6859 -49.5943 -0.0499143 0 200 0
-43.6903 -49.5965 -0.0506274 0 200 0
-43.6948 -49.5986 -0.0513405 0 200 0
-43.6992 -49.6008 -0.0520535 0 200 0
-43.7037 -49.6029 -0.0527666 0 200 0
-43.7081 -49.6051 -0.0534796 0 200 0
-43.7126 -49.6073 -0.0541927 0 200 0
-43.717 -49.6094 -0.0549058 0 200 0
-43.7215 -49.6116 -0.0556188 0 200 0
-43.726 -49.6138 -0.0563319 0 200 0
-43.7304 -49.6159 -0.0570449 0 200 0
-43.7349 -49.6181 -0.057758 0 200 0
-43.7393 -49.6203 -0.0584711 0 200 0
-43.7438 -49.6224 -0.0591841 0 200 0
-43.7482 -49.6246 -0.0598972 0 200 0
-43.7527 -49.6267 -0.0606103 0 200 0
-43.7571 -49.6289 -0.0613233 0 200 0
-43.7616 -49.6311 -0.0620364 0 200 0
-43.766 -49.6332 -0.0627494 0 200 0
-43.7705 -49.6354 -0.0634625 0 200 0
-43.7749 -49.6376 -0.0641756 0 200 0
-43.7794 -49.6397 -0.0648886 0 200 0
-43.7838 -49.6419 -0.0656017 0 200 0
-43.7883 -49.644 -0.0663147 0 200 0
-43.7927 -49.6462 -0.0670278 0 200 0
-43.7972 -49.6484 -0.0677409 0 200 0
-43.8016 -49.6505 -0.0684539 0 200 0
-43.8061 -49.6527 -0.069167 0 200 0
-43.8105 -49.6549 -0.0698801 0 200 0
-43.815 -49.657 -0.0705931 0 200 0
-44.7121 -50.6451 0 0 200 0
-44.7164 -50.6477 -0.000411176 0 200 0
-44.7206 -50.6503 -0.000822352 0 200 0
-44.7249 -50.6529 -0.00123353 0 200 0
-44.7291 -50.6555 -0.0016447 0 200 0
-44.7334 -50.6581 -0.00205588 0 200 0
-44.7376 -50.6607 -0.00246706 0 200 0
-44.7419 -50.6634 -0.00287823 0 200 0
-44.7461 -50.666 -0.00328941 0 200 0
-44.7504 -50.6686 -0.00370058 0 200 0
-44.7546 -50.6712 -0.00411176 0 200 0
-44.7588 -50.6738 -0.00452293 0 200 0
-44.7631 -50.6764 -0.00493411 0 200 0
-44.7673 -50.679 -0.00534529 0 200 0
-44.7716 -50.6816 -0.00575646 0 200 0
-44.7758 -50.6842 -0.00616764 0 200 0
-44.7801 -50.6868 -0.00657881 0 200 0
-44.7843 -50.6894 -0.00698999 0 200 0
-44.7886 -50.692 -0.00740117 0 200 0
-44.7928 -50.6946 -0.00781234 0 200 0
-44.7971 -50.6972 -0.00822352 0 200 0
-44.8013 -50.6998 -0.00863469 0 200 0
-44.8056 -50.7024 -0.00904587 0 200 0
-44.8098 -50.705 -0.00945705 0 200 0
-44.8141 -50.7076 -0.00986822 0 200 0
-44.8183 -50.7102 -0.0102794 0 200 0
-44.8226 -50.7128 -0.0106906 0 200 0
-44.8268 -50.7154 -0.0111017 0 200 0
-44.8311 -50.718 -0.0115129 0 200 0
-44.8353 -50.7206 -0.0119241 0 200 0
-44.8396 -50.7232 -0.0123353 0 200 0
-44.8438 -50.7258 -0.0127465 0 200 0
-44.8481 -50.7285 -0.0131576 0 200 0
-44.8523 -50.7311 -0.0135688 0 200 0
-44.8566 -50.7337 -0.01398 0 200 0
-44.8608 -50.7363 -0.0143912 0 200 0
-44.8651 -50.7389 -0.0148023 0 200 0
-44.8693 -50.7415 -0.0152135 0 200 0
-44.8736 -50.7441 -0.0156247 0 200 0
-44.8778 -50.7467 -0.0160359 0 200 0
-44.8821 -50.7493 -0.016447 0 200 0
-44.8863 -50.7519 -0.0168582 0 200 0
-44.8905 -50.7545 -0.0172694 0 200 0
-44.8948 -50.7571 -0.0176806 0 200 0
-44.899 -50.7597 -0.0180917 0 200 0
-44.9033 -50.7623 -0.0185029 0 200 0
-44.9075 -50.7649 -0.0189141 0 200 0
-44.9118 -50.7675 -0.0193253 0 200 0
-44.916 -50.7701 -0.0197364 0 200 0
-44.9203 -50.7727 -0.0201476 0 200 0
-44.9245 -50.7753 -0.0205588 0 200 0
-44.9288 -50.7779 -0.02097 0 200 0
-44.933 -50.7805 -0.0213811 0 200 0
-44.9373 -50.7831 -0.0217923 0 200 0
-44.9415 -50.7857 -0.0222035 0 200 0
-44.9458 -50.7883 -0.0226147 0 200 0
-44.95 -50.791 -0.0230258 0 200 0
-44.9543 -50.7936 -0.023437 0 200 0
-44.9585 -50.7962 -0.0238482 0 200 0
-44.9628 -50.7988 -0.0242594 0 200 0
-44.967 -50.8014 -0.0246706 0 200 0
-44.9713 -50.804 -0.0250817 0 200 0
-44.9755 -50.8066 -0.0254929 0 200 0
-44.9798 -50.8092 -0.0259041 0 200 0
-44.984 -50.8118 -0.0263153 0 200 0
-44.9883 -50.8144 -0.0267264 0 200 0
-44.9925 -50.817 -0.0271376 0 200 0
-44.9968 -50.8196 -0.0275488 0 200 0
-45.001 -50.8222 -0.02796 0 200 0
-45.0053 -50.8248 -0.0283711 0 200 0
-45.0095 -50.8274 -0.0287823 0 200 0
-45.0138 -50.83 -0.0291935 0 200 0
-45.018 -50.8326 -0.0296047 0 200 0
-45.0223 -50.8352 -0.0300158 0 200 0
-45.0265 -50.8378 -0.030427 0 200 0
-45.0308 -50.8404 -0.0308382 0 200 0
-45.035 -50.843 -0.0312494 0 200 0
-45.0392 -50.8456 -0.0316605 0 200 0
-45.0435 -50.8482 -0.0320717 0 200 0
-45.0477 -50.8508 -0.0324829 0 200 0
-45.052 -50.8535 -0.0328941 0 200 0
-45.0562 -50.8561 -0.0333052 0 200 0
-45.0605 -50.8587 -0.0337164 0 200 0
-45.0647 -50.8613 -0.0341276 0 200 0
-45.069 -50.8639 -0.0345388 0 200 0
-45.0732 -50.8665 -0.0349499 0 200 0
-45.0775 -50.8691 -0.0353611 0 200 0
-45.0817 -50.8717 -0.0357723 0 200 0
-45.086 -50.8743 -0.0361835 0 200 0
-45.0902 -50.8769 -0.0365947 0 200 0
-45.0945 -50.8795 -0.0370058 0 200 0
-45.0987 -50.8821 -0.037417 0 200 0
-45.103 -50.8847 -0.0378282 0 200 0
-45.1072 -50.8873 -0.0382394 0 200 0
-45.1115 -50.8899 -0.0386505 0 200 0
-45.1157 -50.8925 -0.0390617 0 200 0
-45.12 -50.8951 -0.0394729 0 200 0
-45.1242 -50.8977 -0.0398841 0 200 0
-45.1285 -50.9003 -0.0402952 0 200 0
-45.1327 -50.9029 -0.0407064 0 200 0
-46.0684 -51.9094 0 0 200 0
-46.0726 -51.9121 -0.000141896 0 200 0
-46.0768 -51.9148 -0.000283793 0 200 0
-46.081 -51.9175 -0.00042569 0 200 0
-46.0852 -51.9202 -0.000567586 0 200 0
-46.0894 -51.9229 -0.000709483 0 200 0
-46.0936 -51.9257 -0.000851379 0 200 0
-46.0978 -51.9284 -0.000993276 0 200 0
-46.102 -51.9311 -0.00113517 0 200 0
-46.1062 -51.9338 -0.00127707 0 200 0
-46.1104 -51.9365 -0.00141897 0 200 0
-46.1146 -51.9392 -0.00156086 0 200 0
-46.1188 -51.942 -0.00170276 0 200 0
-46.1229 -51.9447 -0.00184465 0 200 0
-46.1271 -51.9474 -0.00198655 0 200 0
-46.1313 -51.9501 -0.00212845 0 200 0
-46.1355 -51.9528 -0.00227034 0 200 0
-46.1397 -51.9555 -0.00241224 0 200 0
-46.1439 -51.9582 -0.00255414 0 200 0
-46.1481 -51.961 -0.00269603 0 200 0
-46.1523 -51.9637 -0.00283793 0 200 0
-46.1565 -51.9664 -0.00297983 0 200 0
-46.1607 -51.9691 -0.00312172 0 200 0
-46.1649 -51.9718 -0.00326362 0 200 0
-46.1691 -51.9745 -0.00340552 0 200 0
-46.1733 -51.9773 -0.00354741 0 200 0
-46.1775 -51.98 -0.00368931 0 200 0
-46.1817 -51.9827 -0.00383121 0 200 0
-46.1859 -51.9854 -0.0039731 0 200 0
-46.1901 -51.9881 -0.004115 0 200 0
-46.1943 -51.9908 -0.0042569 0 200 0
-46.1985 -51.9935 -0.00439879 0 200 0
-46.2027 -51.9963 -0.00454069 0 200 0
-46.2069 -51.999 -0.00468258 0 200 0
-46.2111 -52.0017 -0.00482448 0 200 0
-46.2153 -52.0044 -0.00496638 0 200 0
-46.2195 -52.0071 -0.00510827 0 200 0
-46.2236 -52.0098 -0.00525017 0 200 0
-46.2278 -52.0126 -0.00539207 0 200 0
-46.232 -52.0153 -0.00553396 0 200 0
-46.2362 -52.018 -0.00567586 0 200 0
-46.2404 -52.0207 -0.00581776 0 200 0
-46.2446 -52.0234 -0.00595965 0 200 0
-46.2488 -52.0261 -0.00610155 0 200 0
-46.253 -52.0289 -0.00624345 0 200 0
-46.2572 -52.0316 -0.00638534 0 200 0
-46.2614 -52.0343 -0.00652724 0 200 0
-46.2656 -52.037 -0.00666914 0 200 0
-46.2698 -52.0397 -0.00681103 0 200 0
-46.274 -52.0424 -0.00695293 0 200 0
-46.2782 -52.0451 -0.00709483 0 200 0
-46.2824 -52.0479 -0.00723672 0 200 0
-46.2866 -52.0506 -0.00737862 0 200 0
-46.2908 -52.0533 -0.00752051 0 200 0
-46.295 -52.056 -0.00766241 0 200 0
-46.2992 -52.0587 -0.00780431 0 200 0
-46.3034 -52.0614 -0.0079462 0 200 0
-46.3076 -52.0642 -0.0080881 0 200 0
-46.3118 -52.0669 -0.00823 0 200 0
-46.316 -52.0696 -0.00837189 0 200 0
-46.3202 -52.0723 -0.00851379 0 200 0
-46.3243 -52.075 -0.00865569 0 200 0
-46.3285 -52.0777 -0.00879758 0 200 0
-46.3327 -52.0805 -0.00893948 0 200 0
-46.3369 -52.0832 -0.00908138 0 200 0
-46.3411 -52.0859 -0.00922327 0 200 0
-46.3453 -52.0886 -0.00936517 0 200 0
-46.3495 -52.0913 -0.00950707 0 200 0
-46.3537 -52.094 -0.00964896 0 200 0
-46.3579 -52.0967 -0.00979086 0 200 0
-46.3621 -52.0995 -0.00993276 0 200 0
-46.3663 -52.1022 -0.0100747 0 200 0
-46.3705 -52.1049 -0.0102165 0 200 0
-46.3747 -52.1076 -0.0103584 0 200 0
-46.3789 -52.1103 -0.0105003 0 200 0
-46.3831 -52.113 -0.0106422 0 200 0
-46.3873 -52.1158 -0.0107841 0 200 0
-46.3915 -52.1185 -0.010926 0 200 0
-46.3957 -52.1212 -0.0110679 0 200 0
-46.3999 -52.1239 -0.0112098 0 200 0
-46.4041 -52.1266 -0.0113517 0 200 0
-46.4083 -52.1293 -0.0114936 0 200 0
-46.4125 -52.132 -0.0116355 0 200 0
-46.4167 -52.1348 -0.0117774 0 200 0
-46.4209 -52.1375 -0.0119193 0 200 0
-46.425 -52.1402 -0.0120612 0 200 0
-46.4292 -52.1429 -0.0122031 0 200 0
-46.4334 -52.1456 -0.012345 0 200 0
-46.4376 -52.1483 -0.0124869 0 200 0
-46.4418 -52.1511 -0.0126288 0 200 0
-46.446 -52.1538 -0.0127707 0 200 0
-46.4502 -52.1565 -0.0129126 0 200 0
-46.4544 -52.1592 -0.0130545 0 200 0
-46.4586 -52.1619 -0.0131964 0 200 0
-46.4628 -52.1646 -0.0133383 0 200 0
-46.467 -52.1674 -0.0134802 0 200 0
-46.4712 -52.1701 -0.0136221 0 200 0
-46.4754 -52.1728 -0.013764 0 200 0
-46.4796 -52.1755 -0.0139059 0 200 0
-46.4838 -52.1782 -0.0140478 0 200 0
-47.3908 -53.2476 0 0 200 0
-47.3953 -53.2498 -1.71965e-05 0 200 0
-47.3997 -53.2521 -3.43931e-05 0 200 0
-47.4042 -53.2543 -5.15896e-05 0 200 0
-47.4087 -53.2566 -6.87861e-05 0 200 0
-47.4131 -53.2589 -8.59826e-05 0 200 0
-47.4176 -53.2611 -0.000103179 0 200 0
-47.4221 -53.2634 -0.000120376 0 200 0
-47.4265 -53.2656 -0.000137572 0 200 0
-47.431 -53.2679 -0.000154769 0 200 0
-47.4354 -53.2701 -0.000171965 0 200 0
-47.4399 -53.2724 -0.000189162 0 200 0
-47.4444 -53.2746 -0.000206358 0 200 0
-47.4488 -53.2769 -0.000223555 0 200 0
-47.4533 -53.2792 -0.000240751 0 200 0
-47.4578 -53.2814 -0.000257948 0 200 0
-47.4622 -53.2837 -0.000275144 0 200 0
-47.4667 -53.2859 -0.000292341 0 200 0
-47.4711 -53.2882 -0.000309537 0 200 0
-47.4756 -53.2904 -0.000326734 0 200 0
-47.4801 -53.2927 -0.000343931 0 200 0
-47.4845 -53.2949 -0.000361127 0 200 0
-47.489 -53.2972 -0.000378324 0 200 0
-47.4935 -53.2994 -0.00039552 0 200 0
-47.4979 -53.3017 -0.000412717 0 200 0
-47.5024 -53.304 -0.000429913 0 200 0
-47.5068 -53.3062 -0.00044711 0 200 0
-47.5113 -53.3085 -0.000464306 0 200 0
-47.5158 -53.3107 -0.000481503 0 200 0
-47.5202 -53.313 -0.000498699 0 200 0
-47.5247 -53.3152 -0.000515896 0 200 0
-47.5292 -53.3175 -0.000533092 0 200 0
-47.5336 -53.3197 -0.000550289 0 200 0
-47.5381 -53.322 -0.000567485 0 200 0
-47.5425 -53.3243 -0.000584682 0 200 0
-47.547 -53.3265 -0.000601878 0 200 0
-47.5515 -53.3288 -0.000619075 0 200 0
-47.5559 -53.331 -0.000636271 0 200 0
-47.5604 -53.3333 -0.000653468 0 200 0
-47.5649 -53.3355 -0.000670664 0 200 0
-47.5693 -53.3378 -0.000687861 0 200 0
-47.5738 -53.34 -0.000705058 0 200 0
-47.5782 -53.3423 -0.000722254 0 200 0
-47.5827 -53.3446 -0.000739451 0 200 0
-47.5872 -53.3468 -0.000756647 0 200 0
-47.5916 -53.3491 -0.000773844 0 200 0
-47.5961 -53.3513 -0.00079104 0 200 0
-47.6006 -53.3536 -0.000808237 0 200 0
-47.605 -53.3558 -0.000825433 0 200 0
-47.6095 -53.3581 -0.00084263 0 200 0
-47.6139 -53.3603 -0.000859826 0 200 0
-47.6184 -53.3626 -0.000877023 0 200 0
-47.6229 -53.3648 -0.000894219 0 200 0
-47.6273 -53.3671 -0.000911416 0 200 0
-47.6318 -53.3694 -0.000928612 0 200 0
-47.6363 -53.3716 -0.000945809 0 200 0
-47.6407 -53.3739 -0.000963005 0 200 0
-47.6452 -53.3761 -0.000980202 0 200 0
-47.6496 -53.3784 -0.000997399 0 200 0
-47.6541 -53.3806 -0.0010146 0 200 0
-47.6586 -53.3829 -0.00103179 0 200 0
-47.663 -53.3851 -0.00104899 0 200 0
-47.6675 -53.3874 -0.00106618 0 200 0
-47.672 -53.3897 -0.00108338 0 200 0
-47.6764 -53.3919 -0.00110058 0 200 0
-47.6809 -53.3942 -0.00111777 0 200 0
-47.6853 -53.3964 -0.00113497 0 200 0
-47.6898 -53.3987 -0.00115217 0 200 0
-47.6943 -53.4009 -0.00116936 0 200 0
-47.6987 -53.4032 -0.00118656 0 200 0
-47.7032 -53.4054 -0.00120376 0 200 0
-47.7077 -53.4077 -0.00122095 0 200 0
-47.7121 -53.41 -0.00123815 0 200 0
-47.7166 -53.4122 -0.00125535 0 200 0
-47.721 -53.4145 -0.00127254 0 200 0
-47.7255 -53.4167 -0.00128974 0 200 0
-47.73 -53.419 -0.00130694 0 200 0
-47.7344 -53.4212 -0.00132413 0 200 0
-47.7389 -53.4235 -0.00134133 0 200 0
-47.7434 -53.4257 -0.00135853 0 200 0
-47.7478 -53.428 -0.00137572 0 200 0
-47.7523 -53.4303 -0.00139292 0 200 0
-47.7567 -53.4325 -0.00141012 0 200 0
-47.7612 -53.4348 -0.00142731 0 200 0
-47.7657 -53.437 -0.00144451 0 200 0
-47.7701 -53.4393 -0.0014617 0 200 0
-47.7746 -53.4415 -0.0014789 0 200 0
-47.7791 -53.4438 -0.0014961 0 200 0
-47.7835 -53.446 -0.00151329 0 200 0
-47.788 -53.4483 -0.00153049 0 200 0
-47.7924 -53.4506 -0.00154769 0 200 0
-47.7969 -53.4528 -0.00156488 0 200 0
-47.8014 -53.4551 -0.00158208 0 200 0
-47.8058 -53.4573 -0.00159928 0 200 0
-47.8103 -53.4596 -0.00161647 0 200 0
-47.8148 -53.4618 -0.00163367 0 200 0
-47.8192 -53.4641 -0.00165087 0 200 0
-47.8237 -53.4663 -0.00166806 0 200 0
-47.8281 -53.4686 -0.00168526 0 200 0
-47.8326 -53.4708 -0.00170246 0 200 0
-48.7268 -54.5611 0 0 200 0
-48.7312 -54.5635 -8.71711e-05 0 200 0
-48.7356 -54.5658 -0.000174342 0 200 0
-48.74 -54.5682 -0.000261513 0 200 0
-48.7443 -54.5706 -0.000348684 0 200 0
-48.7487 -54.573 -0.000435855 0 200 0
-48.7531 -54.5754 -0.000523026 0 200 0
-48.7575 -54.5778 -0.000610198 0 200 0
-48.7619 -54.5802 -0.000697369 0 200 0
-48.7663 -54.5826 -0.00078454 0 200 0
-48.7707 -54.585 -0.000871711 0 200 0
-48.7751 -54.5874 -0.000958882 0 200 0
-48.7794 -54.5898 -0.00104605 0 200 0
-48.7838 -54.5922 -0.00113322 0 200 0
-48.7882 -54.5946 -0.0012204 0 200 0
-48.7926 -54.597 -0.00130757 0 200 0
-48.797 -54.5994 -0.00139474 0 200 0
-48.8014 -54.6018 -0.00148191 0 200 0
-48.8058 -54.6042 -0.00156908 0 200 0
-48.8102 -54.6066 -0.00165625 0 200 0
-48.8145 -54.609 -0.00174342 0 200 0
-48.8189 -54.6114 -0.00183059 0 200 0
-48.8233 -54.6138 -0.00191776 0 200 0
-48.8277 -54.6162 -0.00200493 0 200 0
-48.8321 -54.6186 -0.00209211 0 200 0
-48.8365 -54.6209 -0.00217928 0 200 0
-48.8409 -54.6233 -0.00226645 0 200 0
-48.8453 -54.6257 -0.00235362 0 200 0
-48.8496 -54.6281 -0.00244079 0 200 0
-48.854 -54.6305 -0.00252796 0 200 0
-48.8584 -54.6329 -0.00261513 0 200 0
-48.8628 -54.6353 -0.0027023 0 200 0
-48.8672 -54.6377 -0.00278947 0 200 0
-48.8716 -54.6401 -0.00287665 0 200 0
-48.876 -54.6425 -0.00296382 0 200 0
-48.8804 -54.6449 -0.00305099 0 200 0
-48.8847 -54.6473 -0.00313816 0 200 0
-48.8891 -54.6497 -0.00322533 0 200 0
-48.8935 -54.6521 -0.0033125 0 200 0
-48.8979 -54.6545 -0.00339967 0 200 0
-48.9023 -54.6569 -0.00348684 0 200 0
-48.9067 -54.6593 -0.00357401 0 200 0
-48.9111 -54.6617 -0.00366119 0 200 0
-48.9155 -54.6641 -0.00374836 0 200 0
-48.9198 -54.6665 -0.00383553 0 200 0
-48.9242 -54.6689 -0.0039227 0 200 0
-48.9286 -54.6713 -0.00400987 0 200 0
-48.933 -54.6737 -0.00409704 0 200 0
-48.9374 -54.676 -0.00418421 0 200 0
-48.9418 -54.6784 -0.00427138 0 200 0
-48.9462 -54.6808 -0.00435855 0 200 0
-48.9506 -54.6832 -0.00444572 0 200 0
-48.955 -54.6856 -0.0045329 0 200 0
-48.9593 -54.688 -0.00462007 0 200 0
-48.9637 -54.6904 -0.00470724 0 200 0
-48.9681 -54.6928 -0.00479441 0 200 0
-48.9725 -54.6952 -0.00488158 0 200 0
-48.9769 -54.6976 -0.00496875 0 200 0
-48.9813 -54.7 -0.00505592 0 200 0
-48.9857 -54.7024 -0.00514309 0 200 0
-48.9901 -54.7048 -0.00523026 0 200 0
-48.9944 -54.7072 -0.00531744 0 200 0
-48.9988 -54.7096 -0.00540461 0 200 0
-49.0032 -54.712 -0.00549178 0 200 0
