ply
format ascii 1.0
element vertex 1281
property float x
property float y
property float z
property uchar red
property uchar green
property uchar blue
element face 0
property list uchar int vertex_indices
end_header
-81.0297 -41.9833 -0.00258167 0 200 0
-82.6769 -42.6999 0 0 200 0
-82.6777 -42.695 1.21431e-05 0 200 0
-82.6784 -42.6901 2.42862e-05 0 200 0
-82.6792 -42.6851 3.64292e-05 0 200 0
-82.68 -42.6802 4.85723e-05 0 200 0
-82.6807 -42.6752 6.07154e-05 0 200 0
-82.6815 -42.6703 7.28585e-05 0 200 0
-82.6823 -42.6654 8.50015e-05 0 200 0
-82.683 -42.6604 9.71446e-05 0 200 0
-82.6838 -42.6555 0.000109288 0 200 0
-82.6845 -42.6505 0.000121431 0 200 0
-82.6853 -42.6456 0.000133574 0 200 0
-82.6861 -42.6406 0.000145717 0 200 0
-82.6868 -42.6357 0.00015786 0 200 0
-82.6876 -42.6308 0.000170003 0 200 0
-82.6883 -42.6258 0.000182146 0 200 0
-82.6891 -42.6209 0.000194289 0 200 0
-82.6899 -42.6159 0.000206432 0 200 0
-82.6906 -42.611 0.000218575 0 200 0
-82.6914 -42.6061 0.000230718 0 200 0
-82.6922 -42.6011 0.000242862 0 200 0
-82.6929 -42.5962 0.000255005 0 200 0
-82.6937 -42.5912 0.000267148 0 200 0
-82.6944 -42.5863 0.000279291 0 200 0
-82.6952 -42.5813 0.000291434 0 200 0
-82.696 -42.5764 0.000303577 0 200 0
-82.6967 -42.5715 0.00031572 0 200 0
-82.6975 -42.5665 0.000327863 0 200 0
-82.6983 -42.5616 0.000340006 0 200 0
-82.699 -42.5566 0.000352149 0 200 0
-82.6998 -42.5517 0.000364292 0 200 0
-82.7005 -42.5468 0.000376435 0 200 0
-82.7013 -42.5418 0.000388578 0 200 0
-82.7021 -42.5369 0.000400722 0 200 0
-82.7028 -42.5319 0.000412865 0 200 0
-82.7036 -42.527 0.000425008 0 200 0
-82.7043 -42.522 0.000437151 0 200 0
-82.7051 -42.5171 0.000449294 0 200 0
-82.7059 -42.5122 0.000461437 0 200 0
-82.7066 -42.5072 0.00047358 0 200 0
-82.7074 -42.5023 0.000485723 0 200 0
-82.7082 -42.4973 0.000497866 0 200 0
-82.7089 -42.4924 0.000510009 0 200 0
-82.7097 -42.4875 0.000522152 0 200 0
-82.7104 -42.4825 0.000534295 0 200 0
-82.7112 -42.4776 0.000546438 0 200 0
-82.712 -42.4726 0.000558581 0 200 0
-82.7127 -42.4677 0.000570725 0 200 0
-82.7135 -42.4627 0.000582868 0 200 0
-82.7142 -42.4578 0.000595011 0 200 0
-82.715 -42.4529 0.000607154 0 200 0
-82.7158 -42.4479 0.000619297 0 200 0
-82.7165 -42.443 0.00063144 0 200 0
-82.7173 -42.438 0.000643583 0 200 0
-82.7181 -42.4331 0.000655726 0 200 0
-82.7188 -42.4282 0.000667869 0 200 0
-82.7196 -42.4232 0.000680012 0 200 0
-82.7203 -42.4183 0.000692155 0 200 0
-82.7211 -42.4133 0.000704298 0 200 0
-82.7219 -42.4084 0.000716441 0 200 0
-82.7226 -42.4034 0.000728585 0 200 0
-82.7234 -42.3985 0.000740728 0 200 0
-82.7242 -42.3936 0.000752871 0 200 0
-82.7249 -42.3886 0.000765014 0 200 0
-82.7257 -42.3837 0.000777157 0 200 0
-82.7264 -42.3787 0.0007893 0 200 0
-82.7272 -42.3738 0.000801443 0 200 0
-82.728 -42.3689 0.000813586 0 200 0
-82.7287 -42.3639 0.000825729 0 200 0
-82.7295 -42.359 0.000837872 0 200 0
-82.7302 -42.354 0.000850015 0 200 0
-82.731 -42.3491 0.000862158 0 200 0
-82.7318 -42.3441 0.000874301 0 200 0
-82.7325 -42.3392 0.000886445 0 200 0
-82.7333 -42.3343 0.000898588 0 200 0
-82.7341 -42.3293 0.000910731 0 200 0
-82.7348 -42.3244 0.000922874 0 200 0
-82.7356 -42.3194 0.000935017 0 200 0
-82.7363 -42.3145 0.00094716 0 200 0
-82.7371 -42.3096 0.000959303 0 200 0
-82.7379 -42.3046 0.000971446 0 200 0
-82.7386 -42.2997 0.000983589 0 200 0
-82.7394 -42.2947 0.000995732 0 200 0
-82.7402 -42.2898 0.00100788 0 200 0
-82.7409 -42.2848 0.00102002 0 200 0
-82.7417 -42.2799 0.00103216 0 200 0
-82.7424 -42.275 0.0010443 0 200 0
-82.7432 -42.27 0.00105645 0 200 0
-82.744 -42.2651 0.00106859 0 200 0
-82.7447 -42.2601 0.00108073 0 200 0
-82.7455 -42.2552 0.00109288 0 200 0
-82.7462 -42.2503 0.00110502 0 200 0
-82.747 -42.2453 0.00111716 0 200 0
-82.7478 -42.2404 0.00112931 0 200 0
-82.7485 -42.2354 0.00114145 0 200 0
-82.7493 -42.2305 0.00115359 0 200 0
-82.7501 -42.2255 0.00116574 0 200 0
-82.7508 -42.2206 0.00117788 0 200 0
-82.7516 -42.2157 0.00119002 0 200 0
-82.7523 -42.2107 0.00120216 0 200 0
-84.371 -42.9385 0 0 200 0
-84.3707 -42.9335 0.000109491 0 200 0
-84.3704 -42.9285 0.000218982 0 200 0
-84.3701 -42.9235 0.000328473 0 200 0
-84.3697 -42.9185 0.000437963 0 200 0
-84.3694 -42.9135 0.000547454 0 200 0
-84.3691 -42.9085 0.000656945 0 200 0
-84.3688 -42.9035 0.000766436 0 200 0
-84.3684 -42.8986 0.000875927 0 200 0
-84.3681 -42.8936 0.000985418 0 200 0
-84.3678 -42.8886 0.00109491 0 200 0
-84.3675 -42.8836 0.0012044 0 200 0
-84.3671 -42.8786 0.00131389 0 200 0
-84.3668 -42.8736 0.00142338 0 200 0
-84.3665 -42.8686 0.00153287 0 200 0
-84.3662 -42.8636 0.00164236 0 200 0
-84.3658 -42.8586 0.00175185 0 200 0
-84.3655 -42.8537 0.00186134 0 200 0
-84.3652 -42.8487 0.00197084 0 200 0
-84.3649 -42.8437 0.00208033 0 200 0
-84.3645 -42.8387 0.00218982 0 200 0
-84.3642 -42.8337 0.00229931 0 200 0
-84.3639 -42.8287 0.0024088 0 200 0
-84.3636 -42.8237 0.00251829 0 200 0
-84.3632 -42.8187 0.00262778 0 200 0
-84.3629 -42.8138 0.00273727 0 200 0
-84.3626 -42.8088 0.00284676 0 200 0
-84.3623 -42.8038 0.00295625 0 200 0
-84.3619 -42.7988 0.00306574 0 200 0
-84.3616 -42.7938 0.00317523 0 200 0
-84.3613 -42.7888 0.00328473 0 200 0
-84.3609 -42.7838 0.00339422 0 200 0
-84.3606 -42.7788 0.00350371 0 200 0
-84.3603 -42.7738 0.0036132 0 200 0
-84.36 -42.7689 0.00372269 0 200 0
-84.3596 -42.7639 0.00383218 0 200 0
-84.3593 -42.7589 0.00394167 0 200 0
-84.359 -42.7539 0.00405116 0 200 0
-84.3587 -42.7489 0.00416065 0 200 0
-84.3583 -42.7439 0.00427014 0 200 0
-84.358 -42.7389 0.00437963 0 200 0
-84.3577 -42.7339 0.00448913 0 200 0
-84.3574 -42.729 0.00459862 0 200 0
-84.357 -42.724 0.00470811 0 200 0
-84.3567 -42.719 0.0048176 0 200 0
-84.3564 -42.714 0.00492709 0 200 0
-84.3561 -42.709 0.00503658 0 200 0
-84.3557 -42.704 0.00514607 0 200 0
-84.3554 -42.699 0.00525556 0 200 0
-84.3551 -42.694 0.00536505 0 200 0
-84.3548 -42.689 0.00547454 0 200 0
-84.3544 -42.6841 0.00558403 0 200 0
-84.3541 -42.6791 0.00569352 0 200 0
-84.3538 -42.6741 0.00580302 0 200 0
-84.3534 -42.6691 0.00591251 0 200 0
-84.3531 -42.6641 0.006022 0 200 0
-84.3528 -42.6591 0.00613149 0 200 0
-84.3525 -42.6541 0.00624098 0 200 0
-84.3521 -42.6491 0.00635047 0 200 0
-84.3518 -42.6442 0.00645996 0 200 0
-84.3515 -42.6392 0.00656945 0 200 0
-84.3512 -42.6342 0.00667894 0 200 0
-84.3508 -42.6292 0.00678843 0 200 0
-84.3505 -42.6242 0.00689792 0 200 0
-84.3502 -42.6192 0.00700741 0 200 0
-84.3499 -42.6142 0.00711691 0 200 0
-84.3495 -42.6092 0.0072264 0 200 0
-84.3492 -42.6043 0.00733589 0 200 0
-84.3489 -42.5993 0.00744538 0 200 0
-84.3486 -42.5943 0.00755487 0 200 0
-84.3482 -42.5893 0.00766436 0 200 0
-84.3479 -42.5843 0.00777385 0 200 0
-84.3476 -42.5793 0.00788334 0 200 0
-84.3473 -42.5743 0.00799283 0 200 0
-84.3469 -42.5693 0.00810232 0 200 0
-84.3466 -42.5643 0.00821181 0 200 0
-84.3463 -42.5594 0.0083213 0 200 0
-84.346 -42.5544 0.0084308 0 200 0
-84.3456 -42.5494 0.00854029 0 200 0
-84.3453 -42.5444 0.00864978 0 200 0
-84.345 -42.5394 0.00875927 0 200 0
-84.3447 -42.5344 0.00886876 0 200 0
-84.3443 -42.5294 0.00897825 0 200 0
-84.344 -42.5244 0.00908774 0 200 0
-84.3437 -42.5195 0.00919723 0 200 0
-84.3433 -42.5145 0.00930672 0 200 0
-84.343 -42.5095 0.00941621 0 200 0
-84.3427 -42.5045 0.0095257 0 200 0
-84.3424 -42.4995 0.0096352 0 200 0
-84.342 -42.4945 0.00974469 0 200 0
-84.3417 -42.4895 0.00985418 0 200 0
-84.3414 -42.4845 0.00996367 0 200 0
-84.3411 -42.4795 0.0100732 0 200 0
-84.3407 -42.4746 0.0101826 0 200 0
-84.3404 -42.4696 0.0102921 0 200 0
-84.3401 -42.4646 0.0104016 0 200 0
-84.3398 -42.4596 0.0105111 0 200 0
-84.3394 -42.4546 0.0106206 0 200 0
-84.3391 -42.4496 0.0107301 0 200 0
-84.3388 -42.4446 0.0108396 0 200 0
-85.7096 -42.895 0 0 200 0
-85.707 -42.8993 -0.000325271 0 200 0
-85.7044 -42.9035 -0.000650542 0 200 0
-85.7018 -42.9078 -0.000975814 0 200 0
-85.6992 -42.9121 -0.00130108 0 200 0
-85.6966 -42.9164 -0.00162636 0 200 0
-85.6941 -42.9206 -0.00195163 0 200 0
-85.6915 -42.9249 -0.0022769 0 200 0
-85.6889 -42.9292 -0.00260217 0 200 0
-85.6863 -42.9334 -0.00292744 0 200 0
-85.6837 -42.9377 -0.00325271 0 200 0
-85.6811 -42.942 -0.00357798 0 200 0
-85.6785 -42.9462 -0.00390326 0 200 0
-85.6759 -42.9505 -0.00422853 0 200 0
-85.6734 -42.9548 -0.0045538 0 200 0
-85.6708 -42.959 -0.00487907 0 200 0
-85.6682 -42.9633 -0.00520434 0 200 0
-85.6656 -42.9676 -0.00552961 0 200 0
-85.663 -42.9718 -0.00585488 0 200 0
-85.6604 -42.9761 -0.00618015 0 200 0
-85.6579 -42.9804 -0.00650543 0 200 0
-85.6553 -42.9846 -0.0068307 0 200 0
-85.6527 -42.9889 -0.00715597 0 200 0
-85.6501 -42.9932 -0.00748124 0 200 0
-85.6475 -42.9974 -0.00780651 0 200 0
-85.6449 -43.0017 -0.00813178 0 200 0
-85.6423 -43.006 -0.00845705 0 200 0
-85.6397 -43.0102 -0.00878232 0 200 0
-85.6372 -43.0145 -0.0091076 0 200 0
-85.6346 -43.0188 -0.00943287 0 200 0
-85.632 -43.023 -0.00975814 0 200 0
-85.6294 -43.0273 -0.0100834 0 200 0
-85.6268 -43.0316 -0.0104087 0 200 0
-85.6242 -43.0358 -0.010734 0 200 0
-85.6216 -43.0401 -0.0110592 0 200 0
-85.6191 -43.0444 -0.0113845 0 200 0
-85.6165 -43.0486 -0.0117098 0 200 0
-85.6139 -43.0529 -0.012035 0 200 0
-85.6113 -43.0572 -0.0123603 0 200 0
-85.6087 -43.0614 -0.0126856 0 200 0
-85.6061 -43.0657 -0.0130109 0 200 0
-85.6035 -43.07 -0.0133361 0 200 0
-85.601 -43.0742 -0.0136614 0 200 0
-85.5984 -43.0785 -0.0139867 0 200 0
-85.5958 -43.0828 -0.0143119 0 200 0
-85.5932 -43.087 -0.0146372 0 200 0
-85.5906 -43.0913 -0.0149625 0 200 0
-85.588 -43.0956 -0.0152877 0 200 0
-85.5854 -43.0998 -0.015613 0 200 0
-85.5829 -43.1041 -0.0159383 0 200 0
-85.5803 -43.1084 -0.0162636 0 200 0
-85.5777 -43.1126 -0.0165888 0 200 0
-85.5751 -43.1169 -0.0169141 0 200 0
-85.5725 -43.1212 -0.0172394 0 200 0
-85.5699 -43.1254 -0.0175646 0 200 0
-85.5673 -43.1297 -0.0178899 0 200 0
-85.5648 -43.134 -0.0182152 0 200 0
-85.5622 -43.1382 -0.0185405 0 200 0
-85.5596 -43.1425 -0.0188657 0 200 0
-85.557 -43.1468 -0.019191 0 200 0
-85.5544 -43.151 -0.0195163 0 200 0
-85.5518 -43.1553 -0.0198415 0 200 0
-85.5492 -43.1596 -0.0201668 0 200 0
-85.5467 -43.1638 -0.0204921 0 200 0
-85.5441 -43.1681 -0.0208174 0 200 0
-85.5415 -43.1724 -0.0211426 0 200 0
-85.5389 -43.1766 -0.0214679 0 200 0
-85.5363 -43.1809 -0.0217932 0 200 0
-85.5337 -43.1852 -0.0221184 0 200 0
-85.5311 -43.1894 -0.0224437 0 200 0
-85.5286 -43.1937 -0.022769 0 200 0
-85.526 -43.198 -0.0230943 0 200 0
-85.5234 -43.2022 -0.0234195 0 200 0
-85.5208 -43.2065 -0.0237448 0 200 0
-85.5182 -43.2108 -0.0240701 0 200 0
-85.5156 -43.215 -0.0243953 0 200 0
-85.513 -43.2193 -0.0247206 0 200 0
-85.5105 -43.2236 -0.0250459 0 200 0
-85.5079 -43.2278 -0.0253712 0 200 0
-85.5053 -43.2321 -0.0256964 0 200 0
-85.5027 -43.2364 -0.0260217 0 200 0
-85.5001 -43.2406 -0.026347 0 200 0
-85.4975 -43.2449 -0.0266722 0 200 0
-85.4949 -43.2492 -0.0269975 0 200 0
-85.4923 -43.2534 -0.0273228 0 200 0
-85.4898 -43.2577 -0.0276481 0 200 0
-85.4872 -43.262 -0.0279733 0 200 0
-85.4846 -43.2662 -0.0282986 0 200 0
-85.482 -43.2705 -0.0286239 0 200 0
-85.4794 -43.2748 -0.0289491 0 200 0
-85.4768 -43.279 -0.0292744 0 200 0
-85.4743 -43.2833 -0.0295997 0 200 0
-85.4717 -43.2876 -0.029925 0 200 0
-85.4691 -43.2918 -0.0302502 0 200 0
-85.4665 -43.2961 -0.0305755 0 200 0
-85.4639 -43.3004 -0.0309008 0 200 0
-85.4613 -43.3046 -0.031226 0 200 0
-85.4587 -43.3089 -0.0315513 0 200 0
-85.4561 -43.3132 -0.0318766 0 200 0
-85.4536 -43.3174 -0.0322019 0 200 0
-86.7565 -43.4259 0 0 200 0
-86.7566 -43.4309 -0.000256084 0 200 0
-86.7568 -43.4358 -0.000512169 0 200 0
-86.7569 -43.4408 -0.000768253 0 200 0
-86.757 -43.4458 -0.00102434 0 200 0
-86.7572 -43.4508 -0.00128042 0 200 0
-86.7573 -43.4558 -0.00153651 0 200 0
-86.7574 -43.4608 -0.00179259 0 200 0
-86.7576 -43.4658 -0.00204868 0 200 0
-86.7577 -43.4708 -0.00230476 0 200 0
-86.7578 -43.4758 -0.00256084 0 200 0
-86.758 -43.4808 -0.00281693 0 200 0
-86.7581 -43.4858 -0.00307301 0 200 0
-86.7582 -43.4908 -0.0033291 0 200 0
-86.7584 -43.4958 -0.00358518 0 200 0
-86.7585 -43.5007 -0.00384127 0 200 0
-86.7586 -43.5057 -0.00409735 0 200 0
-86.7588 -43.5107 -0.00435343 0 200 0
-86.7589 -43.5157 -0.00460952 0 200 0
-86.759 -43.5207 -0.0048656 0 200 0
-86.7592 -43.5257 -0.00512169 0 200 0
-86.7593 -43.5307 -0.00537777 0 200 0
-86.7595 -43.5357 -0.00563386 0 200 0
-86.7596 -43.5407 -0.00588994 0 200 0
-86.7597 -43.5457 -0.00614603 0 200 0
-86.7599 -43.5507 -0.00640211 0 200 0
-86.76 -43.5556 -0.00665819 0 200 0
-86.7601 -43.5606 -0.00691428 0 200 0
-86.7603 -43.5656 -0.00717036 0 200 0
-86.7604 -43.5706 -0.00742645 0 200 0
-86.7605 -43.5756 -0.00768253 0 200 0
-86.7607 -43.5806 -0.00793862 0 200 0
-86.7608 -43.5856 -0.0081947 0 200 0
-86.7609 -43.5906 -0.00845079 0 200 0
-86.7611 -43.5956 -0.00870687 0 200 0
-86.7612 -43.6006 -0.00896295 0 200 0
-86.7613 -43.6056 -0.00921904 0 200 0
-86.7615 -43.6106 -0.00947512 0 200 0
-86.7616 -43.6155 -0.00973121 0 200 0
-86.7617 -43.6205 -0.00998729 0 200 0
-86.7619 -43.6255 -0.0102434 0 200 0
-86.762 -43.6305 -0.0104995 0 200 0
-86.7621 -43.6355 -0.0107555 0 200 0
-86.7623 -43.6405 -0.0110116 0 200 0
-86.7624 -43.6455 -0.0112677 0 200 0
-86.7626 -43.6505 -0.0115238 0 200 0
-86.7627 -43.6555 -0.0117799 0 200 0
-86.7628 -43.6605 -0.012036 0 200 0
-86.763 -43.6655 -0.0122921 0 200 0
-86.7631 -43.6705 -0.0125481 0 200 0
-86.7632 -43.6754 -0.0128042 0 200 0
-86.7634 -43.6804 -0.0130603 0 200 0
-86.7635 -43.6854 -0.0133164 0 200 0
-86.7636 -43.6904 -0.0135725 0 200 0
-86.7638 -43.6954 -0.0138286 0 200 0
-86.7639 -43.7004 -0.0140846 0 200 0
-86.764 -43.7054 -0.0143407 0 200 0
-86.7642 -43.7104 -0.0145968 0 200 0
-86.7643 -43.7154 -0.0148529 0 200 0
-86.7644 -43.7204 -0.015109 0 200 0
-86.7646 -43.7254 -0.0153651 0 200 0
-86.7647 -43.7304 -0.0156211 0 200 0
-86.7648 -43.7353 -0.0158772 0 200 0
-86.765 -43.7403 -0.0161333 0 200 0
-86.7651 -43.7453 -0.0163894 0 200 0
-86.7652 -43.7503 -0.0166455 0 200 0
-86.7654 -43.7553 -0.0169016 0 200 0
-86.7655 -43.7603 -0.0171577 0 200 0
-86.7656 -43.7653 -0.0174137 0 200 0
-86.7658 -43.7703 -0.0176698 0 200 0
-86.7659 -43.7753 -0.0179259 0 200 0
-86.7661 -43.7803 -0.018182 0 200 0
-86.7662 -43.7853 -0.0184381 0 200 0
-86.7663 -43.7903 -0.0186942 0 200 0
-86.7665 -43.7952 -0.0189502 0 200 0
-86.7666 -43.8002 -0.0192063 0 200 0
-86.7667 -43.8052 -0.0194624 0 200 0
-86.7669 -43.8102 -0.0197185 0 200 0
-86.767 -43.8152 -0.0199746 0 200 0
-86.7671 -43.8202 -0.0202307 0 200 0
-86.7673 -43.8252 -0.0204868 0 200 0
-86.7674 -43.8302 -0.0207428 0 200 0
-86.7675 -43.8352 -0.0209989 0 200 0
-86.7677 -43.8402 -0.021255 0 200 0
-86.7678 -43.8452 -0.0215111 0 200 0
-86.7679 -43.8502 -0.0217672 0 200 0
-86.7681 -43.8551 -0.0220233 0 200 0
-86.7682 -43.8601 -0.0222793 0 200 0
-86.7683 -43.8651 -0.0225354 0 200 0
-86.7685 -43.8701 -0.0227915 0 200 0
-86.7686 -43.8751 -0.0230476 0 200 0
-86.7687 -43.8801 -0.0233037 0 200 0
-86.7689 -43.8851 -0.0235598 0 200 0
-86.769 -43.8901 -0.0238158 0 200 0
-86.7691 -43.8951 -0.0240719 0 200 0
-86.7693 -43.9001 -0.024328 0 200 0
-86.7694 -43.9051 -0.0245841 0 200 0
-86.7696 -43.9101 -0.0248402 0 200 0
-86.7697 -43.915 -0.0250963 0 200 0
-86.7698 -43.92 -0.0253524 0 200 0
-87.6795 -44.3952 0 0 200 0
-87.6795 -44.4002 -0.000215827 0 200 0
-87.6795 -44.4052 -0.000431654 0 200 0
-87.6796 -44.4102 -0.000647481 0 200 0
-87.6796 -44.4152 -0.000863309 0 200 0
-87.6797 -44.4202 -0.00107914 0 200 0
-87.6797 -44.4252 -0.00129496 0 200 0
-87.6797 -44.4302 -0.00151079 0 200 0
-87.6798 -44.4352 -0.00172662 0 200 0
-87.6798 -44.4402 -0.00194244 0 200 0
-87.6799 -44.4452 -0.00215827 0 200 0
-87.6799 -44.4501 -0.0023741 0 200 0
-87.6799 -44.4551 -0.00258993 0 200 0
-87.68 -44.4601 -0.00280575 0 200 0
-87.68 -44.4651 -0.00302158 0 200 0
-87.68 -44.4701 -0.00323741 0 200 0
-87.6801 -44.4751 -0.00345323 0 200 0
-87.6801 -44.4801 -0.00366906 0 200 0
-87.6802 -44.4851 -0.00388489 0 200 0
-87.6802 -44.4901 -0.00410072 0 200 0
-87.6802 -44.4951 -0.00431654 0 200 0
-87.6803 -44.5001 -0.00453237 0 200 0
-87.6803 -44.5051 -0.0047482 0 200 0
-87.6804 -44.5101 -0.00496402 0 200 0
-87.6804 -44.5151 -0.00517985 0 200 0
-87.6804 -44.5201 -0.00539568 0 200 0
-87.6805 -44.5251 -0.00561151 0 200 0
-87.6805 -44.5301 -0.00582733 0 200 0
-87.6806 -44.5351 -0.00604316 0 200 0
-87.6806 -44.5401 -0.00625899 0 200 0
-87.6806 -44.5451 -0.00647481 0 200 0
-87.6807 -44.5501 -0.00669064 0 200 0
-87.6807 -44.555 -0.00690647 0 200 0
-87.6807 -44.56 -0.0071223 0 200 0
-87.6808 -44.565 -0.00733812 0 200 0
-87.6808 -44.57 -0.00755395 0 200 0
-87.6809 -44.575 -0.00776978 0 200 0
-87.6809 -44.58 -0.0079856 0 200 0
-87.6809 -44.585 -0.00820143 0 200 0
-87.681 -44.59 -0.00841726 0 200 0
-87.681 -44.595 -0.00863309 0 200 0
-87.6811 -44.6 -0.00884891 0 200 0
-87.6811 -44.605 -0.00906474 0 200 0
-87.6811 -44.61 -0.00928057 0 200 0
-87.6812 -44.615 -0.00949639 0 200 0
-87.6812 -44.62 -0.00971222 0 200 0
-87.6813 -44.625 -0.00992805 0 200 0
-87.6813 -44.63 -0.0101439 0 200 0
-87.6813 -44.635 -0.0103597 0 200 0
-87.6814 -44.64 -0.0105755 0 200 0
-87.6814 -44.645 -0.0107914 0 200 0
-87.6815 -44.65 -0.0110072 0 200 0
-87.6815 -44.6549 -0.011223 0 200 0
-87.6815 -44.6599 -0.0114388 0 200 0
-87.6816 -44.6649 -0.0116547 0 200 0
-87.6816 -44.6699 -0.0118705 0 200 0
-87.6816 -44.6749 -0.0120863 0 200 0
-87.6817 -44.6799 -0.0123021 0 200 0
-87.6817 -44.6849 -0.012518 0 200 0
-87.6818 -44.6899 -0.0127338 0 200 0
-87.6818 -44.6949 -0.0129496 0 200 0
-87.6818 -44.6999 -0.0131655 0 200 0
-87.6819 -44.7049 -0.0133813 0 200 0
-87.6819 -44.7099 -0.0135971 0 200 0
-87.682 -44.7149 -0.0138129 0 200 0
-87.682 -44.7199 -0.0140288 0 200 0
-87.682 -44.7249 -0.0142446 0 200 0
-87.6821 -44.7299 -0.0144604 0 200 0
-87.6821 -44.7349 -0.0146762 0 200 0
-87.6822 -44.7399 -0.0148921 0 200 0
-87.6822 -44.7449 -0.0151079 0 200 0
-87.6822 -44.7499 -0.0153237 0 200 0
-87.6823 -44.7549 -0.0155396 0 200 0
-87.6823 -44.7598 -0.0157554 0 200 0
-87.6824 -44.7648 -0.0159712 0 200 0
-87.6824 -44.7698 -0.016187 0 200 0
-87.6824 -44.7748 -0.0164029 0 200 0
-87.6825 -44.7798 -0.0166187 0 200 0
-87.6825 -44.7848 -0.0168345 0 200 0
-87.6825 -44.7898 -0.0170503 0 200 0
-87.6826 -44.7948 -0.0172662 0 200 0
-87.6826 -44.7998 -0.017482 0 200 0
-87.6827 -44.8048 -0.0176978 0 200 0
-87.6827 -44.8098 -0.0179137 0 200 0
-87.6827 -44.8148 -0.0181295 0 200 0
-87.6828 -44.8198 -0.0183453 0 200 0
-87.6828 -44.8248 -0.0185611 0 200 0
-87.6829 -44.8298 -0.018777 0 200 0
-87.6829 -44.8348 -0.0189928 0 200 0
-87.6829 -44.8398 -0.0192086 0 200 0
-87.683 -44.8448 -0.0194244 0 200 0
-87.683 -44.8498 -0.0196403 0 200 0
-87.6831 -44.8548 -0.0198561 0 200 0
-87.6831 -44.8598 -0.0200719 0 200 0
-87.6831 -44.8647 -0.0202878 0 200 0
-87.6832 -44.8697 -0.0205036 0 200 0
-87.6832 -44.8747 -0.0207194 0 200 0
-87.6833 -44.8797 -0.0209352 0 200 0
-87.6833 -44.8847 -0.0211511 0 200 0
-87.6833 -44.8897 -0.0213669 0 200 0
-88.5869 -45.567 0 0 200 0
-88.5869 -45.572 -0.000132504 0 200 0
-88.5869 -45.577 -0.000265009 0 200 0
-88.5869 -45.582 -0.000397513 0 200 0
-88.5869 -45.587 -0.000530018 0 200 0
-88.5868 -45.592 -0.000662522 0 200 0
-88.5868 -45.597 -0.000795027 0 200 0
-88.5868 -45.602 -0.000927531 0 200 0
-88.5868 -45.607 -0.00106004 0 200 0
-88.5868 -45.612 -0.00119254 0 200 0
-88.5868 -45.617 -0.00132504 0 200 0
-88.5868 -45.622 -0.00145755 0 200 0
-88.5868 -45.627 -0.00159005 0 200 0
-88.5867 -45.632 -0.00172256 0 200 0
-88.5867 -45.637 -0.00185506 0 200 0
-88.5867 -45.642 -0.00198757 0 200 0
-88.5867 -45.647 -0.00212007 0 200 0
-88.5867 -45.652 -0.00225258 0 200 0
-88.5867 -45.657 -0.00238508 0 200 0
-88.5867 -45.662 -0.00251758 0 200 0
-88.5866 -45.667 -0.00265009 0 200 0
-88.5866 -45.672 -0.00278259 0 200 0
-88.5866 -45.677 -0.0029151 0 200 0
-88.5866 -45.682 -0.0030476 0 200 0
-88.5866 -45.687 -0.00318011 0 200 0
-88.5866 -45.692 -0.00331261 0 200 0
-88.5866 -45.697 -0.00344512 0 200 0
-88.5865 -45.702 -0.00357762 0 200 0
-88.5865 -45.707 -0.00371012 0 200 0
-88.5865 -45.712 -0.00384263 0 200 0
-88.5865 -45.717 -0.00397513 0 200 0
-88.5865 -45.722 -0.00410764 0 200 0
-88.5865 -45.727 -0.00424014 0 200 0
-88.5865 -45.7319 -0.00437265 0 200 0
-88.5865 -45.7369 -0.00450515 0 200 0
-88.5864 -45.7419 -0.00463766 0 200 0
-88.5864 -45.7469 -0.00477016 0 200 0
-88.5864 -45.7519 -0.00490266 0 200 0
-88.5864 -45.7569 -0.00503517 0 200 0
-88.5864 -45.7619 -0.00516767 0 200 0
-88.5864 -45.7669 -0.00530018 0 200 0
-88.5864 -45.7719 -0.00543268 0 200 0
-88.5863 -45.7769 -0.00556519 0 200 0
-88.5863 -45.7819 -0.00569769 0 200 0
-88.5863 -45.7869 -0.0058302 0 200 0
-88.5863 -45.7919 -0.0059627 0 200 0
-88.5863 -45.7969 -0.0060952 0 200 0
-88.5863 -45.8019 -0.00622771 0 200 0
-88.5863 -45.8069 -0.00636021 0 200 0
-88.5863 -45.8119 -0.00649272 0 200 0
-88.5862 -45.8169 -0.00662522 0 200 0
-88.5862 -45.8219 -0.00675773 0 200 0
-88.5862 -45.8269 -0.00689023 0 200 0
-88.5862 -45.8319 -0.00702274 0 200 0
-88.5862 -45.8369 -0.00715524 0 200 0
-88.5862 -45.8419 -0.00728774 0 200 0
-88.5862 -45.8469 -0.00742025 0 200 0
-88.5861 -45.8519 -0.00755275 0 200 0
-88.5861 -45.8569 -0.00768526 0 200 0
-88.5861 -45.8619 -0.00781776 0 200 0
-88.5861 -45.8669 -0.00795027 0 200 0
-88.5861 -45.8719 -0.00808277 0 200 0
-88.5861 -45.8769 -0.00821528 0 200 0
-88.5861 -45.8819 -0.00834778 0 200 0
-88.5861 -45.8869 -0.00848028 0 200 0
-88.586 -45.8919 -0.00861279 0 200 0
-88.586 -45.8969 -0.00874529 0 200 0
-88.586 -45.9019 -0.0088778 0 200 0
-88.586 -45.9069 -0.0090103 0 200 0
-88.586 -45.9119 -0.00914281 0 200 0
-88.586 -45.9169 -0.00927531 0 200 0
-88.586 -45.9219 -0.00940782 0 200 0
-88.5859 -45.9269 -0.00954032 0 200 0
-88.5859 -45.9319 -0.00967282 0 200 0
-88.5859 -45.9369 -0.00980533 0 200 0
-88.5859 -45.9419 -0.00993783 0 200 0
-88.5859 -45.9469 -0.0100703 0 200 0
-88.5859 -45.9519 -0.0102028 0 200 0
-88.5859 -45.9569 -0.0103353 0 200 0
-88.5859 -45.9619 -0.0104679 0 200 0
-88.5858 -45.9669 -0.0106004 0 200 0
-88.5858 -45.9719 -0.0107329 0 200 0
-88.5858 -45.9769 -0.0108654 0 200 0
-88.5858 -45.9819 -0.0109979 0 200 0
-88.5858 -45.9869 -0.0111304 0 200 0
-88.5858 -45.9919 -0.0112629 0 200 0
-88.5858 -45.9969 -0.0113954 0 200 0
-88.5857 -46.0019 -0.0115279 0 200 0
-88.5857 -46.0069 -0.0116604 0 200 0
-88.5857 -46.0119 -0.0117929 0 200 0
-88.5857 -46.0168 -0.0119254 0 200 0
-88.5857 -46.0218 -0.0120579 0 200 0
-88.5857 -46.0268 -0.0121904 0 200 0
-88.5857 -46.0318 -0.0123229 0 200 0
-88.5856 -46.0368 -0.0124554 0 200 0
-88.5856 -46.0418 -0.0125879 0 200 0
-88.5856 -46.0468 -0.0127204 0 200 0
-88.5856 -46.0518 -0.0128529 0 200 0
-88.5856 -46.0568 -0.0129854 0 200 0
-88.5856 -46.0618 -0.0131179 0 200 0
-89.5353 -46.9107 0 0 200 0
-89.5352 -46.9157 -9.83944e-05 0 200 0
-89.5351 -46.9207 -0.000196789 0 200 0
-89.535 -46.9257 -0.000295183 0 200 0
-89.5349 -46.9307 -0.000393578 0 200 0
-89.5349 -46.9357 -0.000491972 0 200 0
-89.5348 -46.9407 -0.000590366 0 200 0
-89.5347 -46.9457 -0.000688761 0 200 0
-89.5346 -46.9507 -0.000787155 0 200 0
-89.5345 -46.9557 -0.00088555 0 200 0
-89.5344 -46.9607 -0.000983944 0 200 0
-89.5344 -46.9657 -0.00108234 0 200 0
-89.5343 -46.9707 -0.00118073 0 200 0
-89.5342 -46.9757 -0.00127913 0 200 0
-89.5341 -46.9807 -0.00137752 0 200 0
-89.534 -46.9857 -0.00147592 0 200 0
-89.5339 -46.9907 -0.00157431 0 200 0
-89.5339 -46.9957 -0.0016727 0 200 0
-89.5338 -47.0007 -0.0017711 0 200 0
-89.5337 -47.0057 -0.00186949 0 200 0
-89.5336 -47.0107 -0.00196789 0 200 0
-89.5335 -47.0157 -0.00206628 0 200 0
-89.5334 -47.0207 -0.00216468 0 200 0
-89.5334 -47.0257 -0.00226307 0 200 0
-89.5333 -47.0307 -0.00236147 0 200 0
-89.5332 -47.0357 -0.00245986 0 200 0
-89.5331 -47.0407 -0.00255825 0 200 0
-89.533 -47.0457 -0.00265665 0 200 0
-89.533 -47.0507 -0.00275504 0 200 0
-89.5329 -47.0557 -0.00285344 0 200 0
-89.5328 -47.0607 -0.00295183 0 200 0
-89.5327 -47.0657 -0.00305023 0 200 0
-89.5326 -47.0707 -0.00314862 0 200 0
-89.5325 -47.0757 -0.00324701 0 200 0
-89.5325 -47.0807 -0.00334541 0 200 0
-89.5324 -47.0857 -0.0034438 0 200 0
-89.5323 -47.0907 -0.0035422 0 200 0
-89.5322 -47.0957 -0.00364059 0 200 0
-89.5321 -47.1007 -0.00373899 0 200 0
-89.532 -47.1056 -0.00383738 0 200 0
-89.532 -47.1106 -0.00393578 0 200 0
-89.5319 -47.1156 -0.00403417 0 200 0
-89.5318 -47.1206 -0.00413256 0 200 0
-89.5317 -47.1256 -0.00423096 0 200 0
-89.5316 -47.1306 -0.00432935 0 200 0
-89.5316 -47.1356 -0.00442775 0 200 0
-89.5315 -47.1406 -0.00452614 0 200 0
-89.5314 -47.1456 -0.00462454 0 200 0
-89.5313 -47.1506 -0.00472293 0 200 0
-89.5312 -47.1556 -0.00482133 0 200 0
-89.5311 -47.1606 -0.00491972 0 200 0
-89.5311 -47.1656 -0.00501811 0 200 0
-89.531 -47.1706 -0.00511651 0 200 0
-89.5309 -47.1756 -0.0052149 0 200 0
-89.5308 -47.1806 -0.0053133 0 200 0
-89.5307 -47.1856 -0.00541169 0 200 0
-89.5306 -47.1906 -0.00551009 0 200 0
-89.5306 -47.1956 -0.00560848 0 200 0
-89.5305 -47.2006 -0.00570687 0 200 0
-89.5304 -47.2056 -0.00580527 0 200 0
-89.5303 -47.2106 -0.00590366 0 200 0
-89.5302 -47.2156 -0.00600206 0 200 0
-89.5302 -47.2206 -0.00610045 0 200 0
-89.5301 -47.2256 -0.00619885 0 200 0
-89.53 -47.2306 -0.00629724 0 200 0
-89.5299 -47.2356 -0.00639564 0 200 0
-89.5298 -47.2406 -0.00649403 0 200 0
-89.5297 -47.2456 -0.00659242 0 200 0
-89.5297 -47.2506 -0.00669082 0 200 0
-89.5296 -47.2556 -0.00678921 0 200 0
-89.5295 -47.2606 -0.00688761 0 200 0
-89.5294 -47.2656 -0.006986 0 200 0
-89.5293 -47.2706 -0.0070844 0 200 0
-89.5292 -47.2756 -0.00718279 0 200 0
-89.5292 -47.2806 -0.00728118 0 200 0
-89.5291 -47.2856 -0.00737958 0 200 0
-89.529 -47.2906 -0.00747797 0 200 0
-89.5289 -47.2956 -0.00757637 0 200 0
-89.5288 -47.3006 -0.00767476 0 200 0
-89.5288 -47.3056 -0.00777316 0 200 0
-89.5287 -47.3106 -0.00787155 0 200 0
-89.5286 -47.3156 -0.00796995 0 200 0
-89.5285 -47.3206 -0.00806834 0 200 0
-89.5284 -47.3256 -0.00816673 0 200 0
-89.5283 -47.3306 -0.00826513 0 200 0
-89.5283 -47.3356 -0.00836352 0 200 0
-89.5282 -47.3406 -0.00846192 0 200 0
-89.5281 -47.3456 -0.00856031 0 200 0
-89.528 -47.3506 -0.00865871 0 200 0
-89.5279 -47.3556 -0.0087571 0 200 0
-89.5278 -47.3606 -0.00885549 0 200 0
-89.5278 -47.3656 -0.00895389 0 200 0
-89.5277 -47.3706 -0.00905228 0 200 0
-89.5276 -47.3756 -0.00915068 0 200 0
-89.5275 -47.3806 -0.00924907 0 200 0
-89.5274 -47.3856 -0.00934747 0 200 0
-89.5274 -47.3906 -0.00944586 0 200 0
-89.5273 -47.3956 -0.00954426 0 200 0
-89.5272 -47.4006 -0.00964265 0 200 0
-89.5271 -47.4056 -0.00974104 0 200 0
-90.502 -48.342 0 0 200 0
-90.5017 -48.347 -1.76804e-05 0 200 0
-90.5014 -48.352 -3.53608e-05 0 200 0
-90.5012 -48.357 -5.30412e-05 0 200 0
-90.5009 -48.362 -7.07216e-05 0 200 0
-90.5006 -48.367 -8.8402e-05 0 200 0
-90.5004 -48.372 -0.000106082 0 200 0
-90.5001 -48.377 -0.000123763 0 200 0
-90.4998 -48.382 -0.000141443 0 200 0
-90.4995 -48.3869 -0.000159124 0 200 0
-90.4992 -48.3919 -0.000176804 0 200 0
-90.499 -48.3969 -0.000194485 0 200 0
-90.4987 -48.4019 -0.000212165 0 200 0
-90.4984 -48.4069 -0.000229845 0 200 0
-90.4981 -48.4119 -0.000247526 0 200 0
-90.4979 -48.4169 -0.000265206 0 200 0
-90.4976 -48.4219 -0.000282887 0 200 0
-90.4973 -48.4269 -0.000300567 0 200 0
-90.497 -48.4319 -0.000318247 0 200 0
-90.4968 -48.4369 -0.000335928 0 200 0
-90.4965 -48.4419 -0.000353608 0 200 0
-90.4962 -48.4469 -0.000371289 0 200 0
-90.4959 -48.4518 -0.000388969 0 200 0
-90.4957 -48.4568 -0.000406649 0 200 0
-90.4954 -48.4618 -0.00042433 0 200 0
-90.4951 -48.4668 -0.00044201 0 200 0
-90.4948 -48.4718 -0.000459691 0 200 0
-90.4946 -48.4768 -0.000477371 0 200 0
-90.4943 -48.4818 -0.000495051 0 200 0
-90.494 -48.4868 -0.000512732 0 200 0
-90.4937 -48.4918 -0.000530412 0 200 0
-90.4935 -48.4968 -0.000548093 0 200 0
-90.4932 -48.5018 -0.000565773 0 200 0
-90.4929 -48.5068 -0.000583454 0 200 0
-90.4926 -48.5118 -0.000601134 0 200 0
-90.4924 -48.5167 -0.000618814 0 200 0
-90.4921 -48.5217 -0.000636495 0 200 0
-90.4918 -48.5267 -0.000654175 0 200 0
-90.4915 -48.5317 -0.000671856 0 200 0
-90.4913 -48.5367 -0.000689536 0 200 0
-90.491 -48.5417 -0.000707216 0 200 0
-90.4907 -48.5467 -0.000724897 0 200 0
-90.4904 -48.5517 -0.000742577 0 200 0
-90.4902 -48.5567 -0.000760258 0 200 0
-90.4899 -48.5617 -0.000777938 0 200 0
-90.4896 -48.5667 -0.000795618 0 200 0
-90.4893 -48.5717 -0.000813299 0 200 0
-90.4891 -48.5767 -0.000830979 0 200 0
-90.4888 -48.5816 -0.00084866 0 200 0
-90.4885 -48.5866 -0.00086634 0 200 0
-90.4882 -48.5916 -0.00088402 0 200 0
-90.488 -48.5966 -0.000901701 0 200 0
-90.4877 -48.6016 -0.000919381 0 200 0
-90.4874 -48.6066 -0.000937062 0 200 0
-90.4871 -48.6116 -0.000954742 0 200 0
-90.4868 -48.6166 -0.000972423 0 200 0
-90.4866 -48.6216 -0.000990103 0 200 0
-90.4863 -48.6266 -0.00100778 0 200 0
-90.486 -48.6316 -0.00102546 0 200 0
-90.4857 -48.6366 -0.00104314 0 200 0
-90.4855 -48.6416 -0.00106082 0 200 0
-90.4852 -48.6465 -0.0010785 0 200 0
-90.4849 -48.6515 -0.00109619 0 200 0
-90.4846 -48.6565 -0.00111387 0 200 0
-90.4844 -48.6615 -0.00113155 0 200 0
-90.4841 -48.6665 -0.00114923 0 200 0
-90.4838 -48.6715 -0.00116691 0 200 0
-90.4835 -48.6765 -0.00118459 0 200 0
-90.4833 -48.6815 -0.00120227 0 200 0
-90.483 -48.6865 -0.00121995 0 200 0
-90.4827 -48.6915 -0.00123763 0 200 0
-90.4824 -48.6965 -0.00125531 0 200 0
-90.4822 -48.7015 -0.00127299 0 200 0
-90.4819 -48.7065 -0.00129067 0 200 0
-90.4816 -48.7114 -0.00130835 0 200 0
-90.4813 -48.7164 -0.00132603 0 200 0
-90.4811 -48.7214 -0.00134371 0 200 0
-90.4808 -48.7264 -0.00136139 0 200 0
-90.4805 -48.7314 -0.00137907 0 200 0
-90.4802 -48.7364 -0.00139675 0 200 0
-90.48 -48.7414 -0.00141443 0 200 0
-90.4797 -48.7464 -0.00143211 0 200 0
-90.4794 -48.7514 -0.00144979 0 200 0
-90.4791 -48.7564 -0.00146747 0 200 0
-90.4789 -48.7614 -0.00148515 0 200 0
-90.4786 -48.7664 -0.00150283 0 200 0
-90.4783 -48.7714 -0.00152052 0 200 0
-90.478 -48.7763 -0.0015382 0 200 0
-90.4778 -48.7813 -0.00155588 0 200 0
-90.4775 -48.7863 -0.00157356 0 200 0
-90.4772 -48.7913 -0.00159124 0 200 0
-90.4769 -48.7963 -0.00160892 0 200 0
-90.4767 -48.8013 -0.0016266 0 200 0
-90.4764 -48.8063 -0.00164428 0 200 0
-90.4761 -48.8113 -0.00166196 0 200 0
-90.4758 -48.8163 -0.00167964 0 200 0
-90.4756 -48.8213 -0.00169732 0 200 0
-90.4753 -48.8263 -0.001715 0 200 0
-90.475 -48.8313 -0.00173268 0 200 0
-90.4747 -48.8363 -0.00175036 0 200 0
-91.5345 -49.8445 0 0 200 0
-91.5339 -49.8494 -8.03201e-05 0 200 0
-91.5332 -49.8544 -0.00016064 0 200 0
-91.5326 -49.8593 -0.00024096 0 200 0
-91.532 -49.8643 -0.00032128 0 200 0
-91.5314 -49.8693 -0.0004016 0 200 0
-91.5308 -49.8742 -0.000481921 0 200 0
-91.5302 -49.8792 -0.000562241 0 200 0
-91.5295 -49.8841 -0.000642561 0 200 0
-91.5289 -49.8891 -0.000722881 0 200 0
-91.5283 -49.8941 -0.000803201 0 200 0
-91.5277 -49.899 -0.000883521 0 200 0
-91.5271 -49.904 -0.000963841 0 200 0
-91.5265 -49.9089 -0.00104416 0 200 0
-91.5258 -49.9139 -0.00112448 0 200 0
-91.5252 -49.9189 -0.0012048 0 200 0
-91.5246 -49.9238 -0.00128512 0 200 0
-91.524 -49.9288 -0.00136544 0 200 0
-91.5234 -49.9338 -0.00144576 0 200 0
-91.5228 -49.9387 -0.00152608 0 200 0
-91.5221 -49.9437 -0.0016064 0 200 0
-91.5215 -49.9486 -0.00168672 0 200 0
-91.5209 -49.9536 -0.00176704 0 200 0
-91.5203 -49.9586 -0.00184736 0 200 0
-91.5197 -49.9635 -0.00192768 0 200 0
-91.5191 -49.9685 -0.002008 0 200 0
-91.5184 -49.9734 -0.00208832 0 200 0
-91.5178 -49.9784 -0.00216864 0 200 0
-91.5172 -49.9834 -0.00224896 0 200 0
-91.5166 -49.9883 -0.00232928 0 200 0
-91.516 -49.9933 -0.0024096 0 200 0
-91.5154 -49.9982 -0.00248992 0 200 0
-91.5147 -50.0032 -0.00257024 0 200 0
-91.5141 -50.0082 -0.00265056 0 200 0
-91.5135 -50.0131 -0.00273088 0 200 0
-91.5129 -50.0181 -0.0028112 0 200 0
-91.5123 -50.0231 -0.00289152 0 200 0
-91.5117 -50.028 -0.00297184 0 200 0
-91.511 -50.033 -0.00305216 0 200 0
-91.5104 -50.0379 -0.00313248 0 200 0
-91.5098 -50.0429 -0.0032128 0 200 0
-91.5092 -50.0479 -0.00329312 0 200 0
-91.5086 -50.0528 -0.00337344 0 200 0
-91.508 -50.0578 -0.00345376 0 200 0
-91.5073 -50.0627 -0.00353408 0 200 0
-91.5067 -50.0677 -0.0036144 0 200 0
-91.5061 -50.0727 -0.00369472 0 200 0
-91.5055 -50.0776 -0.00377504 0 200 0
-91.5049 -50.0826 -0.00385536 0 200 0
-91.5043 -50.0875 -0.00393568 0 200 0
-91.5036 -50.0925 -0.004016 0 200 0
-91.503 -50.0975 -0.00409633 0 200 0
-91.5024 -50.1024 -0.00417665 0 200 0
-91.5018 -50.1074 -0.00425697 0 200 0
-91.5012 -50.1124 -0.00433729 0 200 0
-91.5006 -50.1173 -0.00441761 0 200 0
-91.4999 -50.1223 -0.00449793 0 200 0
-91.4993 -50.1272 -0.00457825 0 200 0
-91.4987 -50.1322 -0.00465857 0 200 0
-91.4981 -50.1372 -0.00473889 0 200 0
-91.4975 -50.1421 -0.00481921 0 200 0
-91.4969 -50.1471 -0.00489953 0 200 0
-91.4962 -50.152 -0.00497985 0 200 0
-91.4956 -50.157 -0.00506017 0 200 0
-91.495 -50.162 -0.00514049 0 200 0
-91.4944 -50.1669 -0.00522081 0 200 0
-91.4938 -50.1719 -0.00530113 0 200 0
-91.4932 -50.1768 -0.00538145 0 200 0
-91.4925 -50.1818 -0.00546177 0 200 0
-91.4919 -50.1868 -0.00554209 0 200 0
-91.4913 -50.1917 -0.00562241 0 200 0
-91.4907 -50.1967 -0.00570273 0 200 0
-91.4901 -50.2017 -0.00578305 0 200 0
-91.4895 -50.2066 -0.00586337 0 200 0
-91.4888 -50.2116 -0.00594369 0 200 0
-91.4882 -50.2165 -0.00602401 0 200 0
-91.4876 -50.2215 -0.00610433 0 200 0
-91.487 -50.2265 -0.00618465 0 200 0
-91.4864 -50.2314 -0.00626497 0 200 0
-91.4858 -50.2364 -0.00634529 0 200 0
-91.4851 -50.2413 -0.00642561 0 200 0
-91.4845 -50.2463 -0.00650593 0 200 0
-91.4839 -50.2513 -0.00658625 0 200 0
-91.4833 -50.2562 -0.00666657 0 200 0
-91.4827 -50.2612 -0.00674689 0 200 0
-91.4821 -50.2662 -0.00682721 0 200 0
-91.4814 -50.2711 -0.00690753 0 200 0
-91.4808 -50.2761 -0.00698785 0 200 0
-91.4802 -50.281 -0.00706817 0 200 0
-91.4796 -50.286 -0.00714849 0 200 0
-91.479 -50.291 -0.00722881 0 200 0
-91.4784 -50.2959 -0.00730913 0 200 0
-91.4777 -50.3009 -0.00738945 0 200 0
-91.4771 -50.3058 -0.00746977 0 200 0
-91.4765 -50.3108 -0.00755009 0 200 0
-91.4759 -50.3158 -0.00763041 0 200 0
-91.4753 -50.3207 -0.00771073 0 200 0
-91.4746 -50.3257 -0.00779105 0 200 0
-91.474 -50.3306 -0.00787137 0 200 0
-91.4734 -50.3356 -0.00795169 0 200 0
-92.7156 -51.1508 0 0 200 0
-92.7123 -51.1546 3.17993e-05 0 200 0
-92.709 -51.1583 6.35986e-05 0 200 0
-92.7057 -51.162 9.53979e-05 0 200 0
-92.7024 -51.1658 0.000127197 0 200 0
-92.699 -51.1695 0.000158996 0 200 0
-92.6957 -51.1732 0.000190796 0 200 0
-92.6924 -51.177 0.000222595 0 200 0
-92.6891 -51.1807 0.000254394 0 200 0
-92.6858 -51.1845 0.000286194 0 200 0
-92.6824 -51.1882 0.000317993 0 200 0
-92.6791 -51.1919 0.000349792 0 200 0
-92.6758 -51.1957 0.000381592 0 200 0
-92.6725 -51.1994 0.000413391 0 200 0
-92.6691 -51.2031 0.00044519 0 200 0
-92.6658 -51.2069 0.000476989 0 200 0
-92.6625 -51.2106 0.000508789 0 200 0
-92.6592 -51.2144 0.000540588 0 200 0
-92.6559 -51.2181 0.000572387 0 200 0
-92.6525 -51.2218 0.000604187 0 200 0
-92.6492 -51.2256 0.000635986 0 200 0
-92.6459 -51.2293 0.000667785 0 200 0
-92.6426 -51.233 0.000699584 0 200 0
-92.6393 -51.2368 0.000731384 0 200 0
-92.6359 -51.2405 0.000763183 0 200 0
-92.6326 -51.2443 0.000794982 0 200 0
-92.6293 -51.248 0.000826782 0 200 0
-92.626 -51.2517 0.000858581 0 200 0
-92.6227 -51.2555 0.00089038 0 200 0
-92.6193 -51.2592 0.00092218 0 200 0
-92.616 -51.2629 0.000953979 0 200 0
-92.6127 -51.2667 0.000985778 0 200 0
-92.6094 -51.2704 0.00101758 0 200 0
-92.606 -51.2742 0.00104938 0 200 0
-92.6027 -51.2779 0.00108118 0 200 0
-92.5994 -51.2816 0.00111298 0 200 0
-92.5961 -51.2854 0.00114477 0 200 0
-92.5928 -51.2891 0.00117657 0 200 0
-92.5894 -51.2928 0.00120837 0 200 0
-92.5861 -51.2966 0.00124017 0 200 0
-92.5828 -51.3003 0.00127197 0 200 0
-92.5795 -51.3041 0.00130377 0 200 0
-92.5761 -51.3078 0.00133557 0 200 0
-92.5728 -51.3115 0.00136737 0 200 0
-92.5695 -51.3153 0.00139917 0 200 0
-92.5662 -51.319 0.00143097 0 200 0
-92.5629 -51.3227 0.00146277 0 200 0
-92.5595 -51.3265 0.00149457 0 200 0
-92.5562 -51.3302 0.00152637 0 200 0
-92.5529 -51.334 0.00155817 0 200 0
-92.5496 -51.3377 0.00158996 0 200 0
-92.5463 -51.3414 0.00162176 0 200 0
-92.5429 -51.3452 0.00165356 0 200 0
-92.5396 -51.3489 0.00168536 0 200 0
-92.5363 -51.3526 0.00171716 0 200 0
-92.533 -51.3564 0.00174896 0 200 0
-92.5297 -51.3601 0.00178076 0 200 0
-92.5263 -51.3639 0.00181256 0 200 0
-92.523 -51.3676 0.00184436 0 200 0
-92.5197 -51.3713 0.00187616 0 200 0
-92.5164 -51.3751 0.00190796 0 200 0
-92.513 -51.3788 0.00193976 0 200 0
-92.5097 -51.3825 0.00197156 0 200 0
-92.5064 -51.3863 0.00200336 0 200 0
-92.5031 -51.39 0.00203515 0 200 0
-92.4998 -51.3938 0.00206695 0 200 0
-92.4964 -51.3975 0.00209875 0 200 0
-92.4931 -51.4012 0.00213055 0 200 0
-92.4898 -51.405 0.00216235 0 200 0
-92.4865 -51.4087 0.00219415 0 200 0
-92.4832 -51.4124 0.00222595 0 200 0
-92.4798 -51.4162 0.00225775 0 200 0
-92.4765 -51.4199 0.00228955 0 200 0
-92.4732 -51.4237 0.00232135 0 200 0
-92.4699 -51.4274 0.00235315 0 200 0
-92.4666 -51.4311 0.00238495 0 200 0
-92.4632 -51.4349 0.00241675 0 200 0
-92.4599 -51.4386 0.00244855 0 200 0
-92.4566 -51.4423 0.00248034 0 200 0
-92.4533 -51.4461 0.00251214 0 200 0
-92.4499 -51.4498 0.00254394 0 200 0
-92.4466 -51.4536 0.00257574 0 200 0
-92.4433 -51.4573 0.00260754 0 200 0
-92.44 -51.461 0.00263934 0 200 0
-92.4367 -51.4648 0.00267114 0 200 0
-92.4333 -51.4685 0.00270294 0 200 0
-92.43 -51.4722 0.00273474 0 200 0
-92.4267 -51.476 0.00276654 0 200 0
-92.4234 -51.4797 0.00279834 0 200 0
-92.4201 -51.4835 0.00283014 0 200 0
-92.4167 -51.4872 0.00286194 0 200 0
-92.4134 -51.4909 0.00289374 0 200 0
-92.4101 -51.4947 0.00292553 0 200 0
-92.4068 -51.4984 0.00295733 0 200 0
-92.4035 -51.5021 0.00298913 0 200 0
-92.4001 -51.5059 0.00302093 0 200 0
-92.3968 -51.5096 0.00305273 0 200 0
-92.3935 -51.5134 0.00308453 0 200 0
-92.3902 -51.5171 0.00311633 0 200 0
-92.3868 -51.5208 0.00314813 0 200 0
-94.2629 -52.148 0 0 200 0
-94.2579 -52.1484 -0.000122612 0 200 0
-94.2529 -52.1489 -0.000245225 0 200 0
-94.2479 -52.1494 -0.000367837 0 200 0
-94.243 -52.1498 -0.00049045 0 200 0
-94.238 -52.1503 -0.000613062 0 200 0
-94.233 -52.1508 -0.000735675 0 200 0
-94.228 -52.1512 -0.000858287 0 200 0
-94.2231 -52.1517 -0.0009809 0 200 0
-94.2181 -52.1522 -0.00110351 0 200 0
-94.2131 -52.1526 -0.00122612 0 200 0
-94.2081 -52.1531 -0.00134874 0 200 0
-94.2031 -52.1535 -0.00147135 0 200 0
-94.1982 -52.154 -0.00159396 0 200 0
-94.1932 -52.1545 -0.00171657 0 200 0
-94.1882 -52.1549 -0.00183919 0 200 0
-94.1832 -52.1554 -0.0019618 0 200 0
-94.1783 -52.1559 -0.00208441 0 200 0
-94.1733 -52.1563 -0.00220702 0 200 0
-94.1683 -52.1568 -0.00232964 0 200 0
-94.1633 -52.1573 -0.00245225 0 200 0
-94.1584 -52.1577 -0.00257486 0 200 0
-94.1534 -52.1582 -0.00269747 0 200 0
-94.1484 -52.1587 -0.00282009 0 200 0
-94.1434 -52.1591 -0.0029427 0 200 0
-94.1384 -52.1596 -0.00306531 0 200 0
-94.1335 -52.1601 -0.00318792 0 200 0
-94.1285 -52.1605 -0.00331054 0 200 0
-94.1235 -52.161 -0.00343315 0 200 0
-94.1185 -52.1615 -0.00355576 0 200 0
-94.1136 -52.1619 -0.00367837 0 200 0
-94.1086 -52.1624 -0.00380099 0 200 0
-94.1036 -52.1628 -0.0039236 0 200 0
-94.0986 -52.1633 -0.00404621 0 200 0
-94.0937 -52.1638 -0.00416882 0 200 0
-94.0887 -52.1642 -0.00429144 0 200 0
-94.0837 -52.1647 -0.00441405 0 200 0
-94.0787 -52.1652 -0.00453666 0 200 0
-94.0737 -52.1656 -0.00465927 0 200 0
-94.0688 -52.1661 -0.00478189 0 200 0
-94.0638 -52.1666 -0.0049045 0 200 0
-94.0588 -52.167 -0.00502711 0 200 0
-94.0538 -52.1675 -0.00514972 0 200 0
-94.0489 -52.168 -0.00527234 0 200 0
-94.0439 -52.1684 -0.00539495 0 200 0
-94.0389 -52.1689 -0.00551756 0 200 0
-94.0339 -52.1694 -0.00564017 0 200 0
-94.029 -52.1698 -0.00576279 0 200 0
-94.024 -52.1703 -0.0058854 0 200 0
-94.019 -52.1708 -0.00600801 0 200 0
-94.014 -52.1712 -0.00613062 0 200 0
-94.009 -52.1717 -0.00625324 0 200 0
-94.0041 -52.1721 -0.00637585 0 200 0
-93.9991 -52.1726 -0.00649846 0 200 0
-93.9941 -52.1731 -0.00662107 0 200 0
-93.9891 -52.1735 -0.00674368 0 200 0
-93.9842 -52.174 -0.0068663 0 200 0
-93.9792 -52.1745 -0.00698891 0 200 0
-93.9742 -52.1749 -0.00711152 0 200 0
-93.9692 -52.1754 -0.00723413 0 200 0
-93.9643 -52.1759 -0.00735675 0 200 0
-93.9593 -52.1763 -0.00747936 0 200 0
-93.9543 -52.1768 -0.00760197 0 200 0
-93.9493 -52.1773 -0.00772458 0 200 0
-93.9444 -52.1777 -0.0078472 0 200 0
-93.9394 -52.1782 -0.00796981 0 200 0
-93.9344 -52.1787 -0.00809242 0 200 0
-93.9294 -52.1791 -0.00821503 0 200 0
-93.9244 -52.1796 -0.00833765 0 200 0
-93.9195 -52.18 -0.00846026 0 200 0
-93.9145 -52.1805 -0.00858287 0 200 0
-93.9095 -52.181 -0.00870548 0 200 0
-93.9045 -52.1814 -0.0088281 0 200 0
-93.8996 -52.1819 -0.00895071 0 200 0
-93.8946 -52.1824 -0.00907332 0 200 0
-93.8896 -52.1828 -0.00919593 0 200 0
-93.8846 -52.1833 -0.00931855 0 200 0
-93.8797 -52.1838 -0.00944116 0 200 0
-93.8747 -52.1842 -0.00956377 0 200 0
-93.8697 -52.1847 -0.00968638 0 200 0
-93.8647 -52.1852 -0.009809 0 200 0
-93.8597 -52.1856 -0.00993161 0 200 0
-93.8548 -52.1861 -0.0100542 0 200 0
-93.8498 -52.1866 -0.0101768 0 200 0
-93.8448 -52.187 -0.0102994 0 200 0
-93.8398 -52.1875 -0.0104221 0 200 0
-93.8349 -52.188 -0.0105447 0 200 0
-93.8299 -52.1884 -0.0106673 0 200 0
-93.8249 -52.1889 -0.0107899 0 200 0
-93.8199 -52.1894 -0.0109125 0 200 0
-93.8149 -52.1898 -0.0110351 0 200 0
-93.81 -52.1903 -0.0111577 0 200 0
-93.805 -52.1907 -0.0112803 0 200 0
-93.8 -52.1912 -0.011403 0 200 0
-93.795 -52.1917 -0.0115256 0 200 0
-93.7901 -52.1921 -0.0116482 0 200 0
-93.7851 -52.1926 -0.0117708 0 200 0
-93.7801 -52.1931 -0.0118934 0 200 0
-93.7751 -52.1935 -0.012016 0 200 0
-93.7702 -52.194 -0.0121386 0 200 0
-95.9118 -53.1391 0 0 200 0
-95.9069 -53.1383 -0.000190714 0 200 0
-95.9019 -53.1374 -0.000381428 0 200 0
-95.897 -53.1365 -0.000572141 0 200 0
-95.8921 -53.1357 -0.000762855 0 200 0
-95.8872 -53.1348 -0.000953569 0 200 0
-95.8823 -53.134 -0.00114428 0 200 0
-95.8773 -53.1331 -0.001335 0 200 0
-95.8724 -53.1322 -0.00152571 0 200 0
-95.8675 -53.1314 -0.00171642 0 200 0
-95.8626 -53.1305 -0.00190714 0 200 0
-95.8577 -53.1297 -0.00209785 0 200 0
-95.8527 -53.1288 -0.00228857 0 200 0
-95.8478 -53.1279 -0.00247928 0 200 0
-95.8429 -53.1271 -0.00266999 0 200 0
-95.838 -53.1262 -0.00286071 0 200 0
-95.833 -53.1254 -0.00305142 0 200 0
-95.8281 -53.1245 -0.00324213 0 200 0
-95.8232 -53.1236 -0.00343285 0 200 0
-95.8183 -53.1228 -0.00362356 0 200 0
-95.8133 -53.1219 -0.00381428 0 200 0
-95.8084 -53.1211 -0.00400499 0 200 0
-95.8035 -53.1202 -0.0041957 0 200 0
-95.7986 -53.1194 -0.00438642 0 200 0
-95.7937 -53.1185 -0.00457713 0 200 0
-95.7887 -53.1176 -0.00476784 0 200 0
-95.7838 -53.1168 -0.00495856 0 200 0
-95.7789 -53.1159 -0.00514927 0 200 0
-95.774 -53.1151 -0.00533999 0 200 0
-95.7691 -53.1142 -0.0055307 0 200 0
-95.7641 -53.1133 -0.00572141 0 200 0
-95.7592 -53.1125 -0.00591213 0 200 0
-95.7543 -53.1116 -0.00610284 0 200 0
-95.7494 -53.1108 -0.00629355 0 200 0
-95.7444 -53.1099 -0.00648427 0 200 0
-95.7395 -53.109 -0.00667498 0 200 0
-95.7346 -53.1082 -0.0068657 0 200 0
-95.7297 -53.1073 -0.00705641 0 200 0
-95.7248 -53.1065 -0.00724712 0 200 0
-95.7198 -53.1056 -0.00743784 0 200 0
-95.7149 -53.1047 -0.00762855 0 200 0
-95.71 -53.1039 -0.00781927 0 200 0
-95.7051 -53.103 -0.00800998 0 200 0
-95.7001 -53.1022 -0.00820069 0 200 0
-95.6952 -53.1013 -0.00839141 0 200 0
-95.6903 -53.1005 -0.00858212 0 200 0
-95.6854 -53.0996 -0.00877283 0 200 0
-95.6805 -53.0987 -0.00896355 0 200 0
-95.6755 -53.0979 -0.00915426 0 200 0
-95.6706 -53.097 -0.00934498 0 200 0
-95.6657 -53.0962 -0.00953569 0 200 0
-95.6608 -53.0953 -0.0097264 0 200 0
-95.6558 -53.0944 -0.00991712 0 200 0
-95.6509 -53.0936 -0.0101078 0 200 0
-95.646 -53.0927 -0.0102985 0 200 0
-95.6411 -53.0919 -0.0104893 0 200 0
-95.6362 -53.091 -0.01068 0 200 0
-95.6312 -53.0901 -0.0108707 0 200 0
-95.6263 -53.0893 -0.0110614 0 200 0
-95.6214 -53.0884 -0.0112521 0 200 0
-95.6165 -53.0876 -0.0114428 0 200 0
-95.6115 -53.0867 -0.0116335 0 200 0
-95.6066 -53.0858 -0.0118243 0 200 0
-95.6017 -53.085 -0.012015 0 200 0
-95.5968 -53.0841 -0.0122057 0 200 0
-95.5919 -53.0833 -0.0123964 0 200 0
-95.5869 -53.0824 -0.0125871 0 200 0
-95.582 -53.0816 -0.0127778 0 200 0
-95.5771 -53.0807 -0.0129685 0 200 0
-95.5722 -53.0798 -0.0131593 0 200 0
-95.5673 -53.079 -0.01335 0 200 0
-95.5623 -53.0781 -0.0135407 0 200 0
-95.5574 -53.0773 -0.0137314 0 200 0
-95.5525 -53.0764 -0.0139221 0 200 0
-95.5476 -53.0755 -0.0141128 0 200 0
-95.5426 -53.0747 -0.0143035 0 200 0
-95.5377 -53.0738 -0.0144942 0 200 0
-95.5328 -53.073 -0.014685 0 200 0
-95.5279 -53.0721 -0.0148757 0 200 0
-95.523 -53.0712 -0.0150664 0 200 0
-95.518 -53.0704 -0.0152571 0 200 0
-95.5131 -53.0695 -0.0154478 0 200 0
-95.5082 -53.0687 -0.0156385 0 200 0
-95.5033 -53.0678 -0.0158292 0 200 0
-95.4983 -53.0669 -0.01602 0 200 0
-95.4934 -53.0661 -0.0162107 0 200 0
-95.4885 -53.0652 -0.0164014 0 200 0
-95.4836 -53.0644 -0.0165921 0 200 0
-95.4787 -53.0635 -0.0167828 0 200 0
-95.4737 -53.0626 -0.0169735 0 200 0
-95.4688 -53.0618 -0.0171642 0 200 0
-95.4639 -53.0609 -0.017355 0 200 0
-95.459 -53.0601 -0.0175457 0 200 0
-95.454 -53.0592 -0.0177364 0 200 0
-95.4491 -53.0584 -0.0179271 0 200 0
-95.4442 -53.0575 -0.0181178 0 200 0
-95.4393 -53.0566 -0.0183085 0 200 0
-95.4344 -53.0558 -0.0184992 0 200 0
-95.4294 -53.0549 -0.01869 0 200 0
-95.4245 -53.0541 -0.0188807 0 200 0
-97.377 -54.5309 0 0 200 0
-97.3721 -54.5305 -0.000100202 0 200 0
-97.3671 -54.5301 -0.000200404 0 200 0
-97.3621 -54.5297 -0.000300606 0 200 0
-97.3571 -54.5293 -0.000400807 0 200 0
-97.3521 -54.5289 -0.000501009 0 200 0
-97.3471 -54.5285 -0.000601211 0 200 0
-97.3422 -54.5281 -0.000701413 0 200 0
-97.3372 -54.5277 -0.000801615 0 200 0
-97.3322 -54.5273 -0.000901817 0 200 0
-97.3272 -54.5269 -0.00100202 0 200 0
-97.3222 -54.5265 -0.00110222 0 200 0
-97.3172 -54.526 -0.00120242 0 200 0
-97.3123 -54.5256 -0.00130262 0 200 0
-97.3073 -54.5252 -0.00140283 0 200 0
-97.3023 -54.5248 -0.00150303 0 200 0
-97.2973 -54.5244 -0.00160323 0 200 0
-97.2923 -54.524 -0.00170343 0 200 0
-97.2874 -54.5236 -0.00180363 0 200 0
-97.2824 -54.5232 -0.00190384 0 200 0
-97.2774 -54.5228 -0.00200404 0 200 0
-97.2724 -54.5224 -0.00210424 0 200 0
-97.2674 -54.522 -0.00220444 0 200 0
-97.2624 -54.5216 -0.00230464 0 200 0
-97.2575 -54.5212 -0.00240484 0 200 0
-97.2525 -54.5208 -0.00250505 0 200 0
-97.2475 -54.5204 -0.00260525 0 200 0
-97.2425 -54.52 -0.00270545 0 200 0
-97.2375 -54.5196 -0.00280565 0 200 0
-97.2325 -54.5191 -0.00290585 0 200 0
-97.2276 -54.5187 -0.00300606 0 200 0
-97.2226 -54.5183 -0.00310626 0 200 0
-97.2176 -54.5179 -0.00320646 0 200 0
-97.2126 -54.5175 -0.00330666 0 200 0
-97.2076 -54.5171 -0.00340686 0 200 0
-97.2027 -54.5167 -0.00350707 0 200 0
-97.1977 -54.5163 -0.00360727 0 200 0
-97.1927 -54.5159 -0.00370747 0 200 0
-97.1877 -54.5155 -0.00380767 0 200 0
-97.1827 -54.5151 -0.00390787 0 200 0
-97.1777 -54.5147 -0.00400807 0 200 0
-97.1728 -54.5143 -0.00410828 0 200 0
-97.1678 -54.5139 -0.00420848 0 200 0
-97.1628 -54.5135 -0.00430868 0 200 0
-97.1578 -54.5131 -0.00440888 0 200 0
-97.1528 -54.5126 -0.00450908 0 200 0
-97.1478 -54.5122 -0.00460929 0 200 0
-97.1429 -54.5118 -0.00470949 0 200 0
-97.1379 -54.5114 -0.00480969 0 200 0
-97.1329 -54.511 -0.00490989 0 200 0
-97.1279 -54.5106 -0.00501009 0 200 0
-97.1229 -54.5102 -0.0051103 0 200 0
-97.118 -54.5098 -0.0052105 0 200 0
-97.113 -54.5094 -0.0053107 0 200 0
-97.108 -54.509 -0.0054109 0 200 0
-97.103 -54.5086 -0.0055111 0 200 0
-97.098 -54.5082 -0.0056113 0 200 0
-97.093 -54.5078 -0.00571151 0 200 0
-97.0881 -54.5074 -0.00581171 0 200 0
-97.0831 -54.507 -0.00591191 0 200 0
-97.0781 -54.5066 -0.00601211 0 200 0
-97.0731 -54.5062 -0.00611231 0 200 0
-97.0681 -54.5057 -0.00621252 0 200 0
-97.0631 -54.5053 -0.00631272 0 200 0
-97.0582 -54.5049 -0.00641292 0 200 0
-97.0532 -54.5045 -0.00651312 0 200 0
-97.0482 -54.5041 -0.00661332 0 200 0
-97.0432 -54.5037 -0.00671352 0 200 0
-97.0382 -54.5033 -0.00681373 0 200 0
-97.0332 -54.5029 -0.00691393 0 200 0
-97.0283 -54.5025 -0.00701413 0 200 0
-97.0233 -54.5021 -0.00711433 0 200 0
-97.0183 -54.5017 -0.00721453 0 200 0
-97.0133 -54.5013 -0.00731474 0 200 0
-97.0083 -54.5009 -0.00741494 0 200 0
-97.0033 -54.5005 -0.00751514 0 200 0
-96.9984 -54.5001 -0.00761534 0 200 0
-96.9934 -54.4997 -0.00771554 0 200 0
-96.9884 -54.4993 -0.00781574 0 200 0
-96.9834 -54.4988 -0.00791595 0 200 0
