ply
format ascii 1.0
element vertex 1302
property float x
property float y
property float z
property uchar red
property uchar green
property uchar blue
element face 0
property list uchar int vertex_indices
end_header
-10.9182 -16.7488 0.147158 0 255 255
-10.9137 -16.7493 0.147661 0 255 255
-10.9092 -16.7498 0.148188 0 255 255
-10.9047 -16.7504 0.148743 0 255 255
-10.9003 -16.7509 0.14934 0 255 255
-10.8959 -16.7515 0.14998 0 255 255
-10.8916 -16.752 0.15066 0 255 255
-10.8873 -16.7525 0.151392 0 255 255
-10.883 -16.753 0.15217 0 255 255
-10.8787 -16.7534 0.152997 0 255 255
-10.8745 -16.7537 0.15387 0 255 255
-10.8703 -16.754 0.15478 0 255 255
-10.8661 -16.7542 0.155715 0 255 255
-10.8619 -16.7543 0.156683 0 255 255
-10.8578 -16.7544 0.157677 0 255 255
-10.8536 -16.7544 0.158689 0 255 255
-10.8494 -16.7545 0.159712 0 255 255
-10.846 -16.7545 0.160552 0 255 255
-10.8426 -16.7545 0.161387 0 255 255
-10.839 -16.7545 0.162236 0 255 255
-10.8353 -16.7544 0.163095 0 255 255
-10.8315 -16.7545 0.163954 0 255 255
-10.8275 -16.7545 0.164792 0 255 255
-10.8236 -16.7546 0.165602 0 255 255
-10.8195 -16.7547 0.166375 0 255 255
-10.8154 -16.7548 0.167098 0 255 255
-10.8114 -16.755 0.167763 0 255 255
-10.8073 -16.7552 0.168359 0 255 255
-10.8033 -16.7555 0.16889 0 255 255
-10.7993 -16.7558 0.169352 0 255 255
-10.795 -16.7561 0.169772 0 255 255
-10.7908 -16.7565 0.170125 0 255 255
-10.7864 -16.7569 0.170415 0 255 255
-10.7822 -16.7574 0.170642 0 255 255
-10.7778 -16.7578 0.170813 0 255 255
-10.7735 -16.7583 0.170929 0 255 255
-10.7698 -16.7587 0.170983 0 255 255
-10.7663 -16.7591 0.170998 0 255 255
-10.7627 -16.7595 0.170979 0 255 255
-10.7591 -16.7599 0.170931 0 255 255
-10.7555 -16.7603 0.170858 0 255 255
-10.7519 -16.7607 0.170765 0 255 255
-10.7484 -16.761 0.170657 0 255 255
-10.7447 -16.7614 0.170533 0 255 255
-10.7412 -16.7617 0.170398 0 255 255
-10.7376 -16.7621 0.17025 0 255 255
-10.734 -16.7624 0.170085 0 255 255
-10.7304 -16.7628 0.169902 0 255 255
-10.7268 -16.7631 0.1697 0 255 255
-10.7231 -16.7635 0.169468 0 255 255
-10.7193 -16.7639 0.169194 0 255 255
-10.7153 -16.7643 0.168884 0 255 255
-10.7107 -16.7648 0.16848 0 255 255
-10.7062 -16.7653 0.168033 0 255 255
-10.7016 -16.7659 0.167546 0 255 255
-10.6969 -16.7664 0.167012 0 255 255
-10.6922 -16.767 0.166437 0 255 255
-10.6874 -16.7676 0.165822 0 255 255
-10.6826 -16.7682 0.165167 0 255 255
-10.6778 -16.7688 0.164478 0 255 255
-10.6729 -16.7695 0.163746 0 255 255
-10.668 -16.7702 0.162975 0 255 255
-10.663 -16.7708 0.162165 0 255 255
-10.6579 -16.7715 0.16131 0 255 255
-10.6528 -16.7722 0.160422 0 255 255
-10.6482 -16.7729 0.159591 0 255 255
-10.6437 -16.7735 0.158753 0 255 255
-10.6392 -16.7742 0.157888 0 255 255
-10.6346 -16.7748 0.156997 0 255 255
-10.6301 -16.7754 0.156089 0 255 255
-10.6258 -16.776 0.155208 0 255 255
-10.6214 -16.7766 0.154317 0 255 255
-10.617 -16.7772 0.15342 0 255 255
-10.6127 -16.7778 0.152528 0 255 255
-10.6082 -16.7784 0.151649 0 255 255
-10.6039 -16.779 0.150797 0 255 255
-10.5994 -16.7795 0.149971 0 255 255
-10.595 -16.7801 0.149184 0 255 255
-10.59 -16.7806 0.148359 0 255 255
-10.5846 -16.7813 0.147522 0 255 255
-10.5791 -16.7819 0.146746 0 255 255
-10.5735 -16.7826 0.146039 0 255 255
-10.568 -16.7832 0.1454 0 255 255
-10.5624 -16.7839 0.144826 0 255 255
-10.5568 -16.7846 0.144311 0 255 255
-10.5512 -16.7853 0.143849 0 255 255
-10.5456 -16.786 0.143434 0 255 255
-10.5399 -16.7867 0.143053 0 255 255
-10.5342 -16.7875 0.142701 0 255 255
-10.5284 -16.7883 0.142371 0 255 255
-10.5226 -16.7891 0.142056 0 255 255
-10.5167 -16.7899 0.141753 0 255 255
-10.5107 -16.7908 0.141478 0 255 255
-10.5047 -16.7917 0.141204 0 255 255
-10.4985 -16.7926 0.140929 0 255 255
-10.4923 -16.7935 0.140652 0 255 255
-10.4861 -16.7944 0.140381 0 255 255
-10.4798 -16.7954 0.140117 0 255 255
-10.4734 -16.7963 0.139875 0 255 255
-10.467 -16.7973 0.139666 0 255 255
-10.4605 -16.7982 0.139504 0 255 255
-10.454 -16.7992 0.139401 0 255 255
-10.4474 -16.8001 0.139372 0 255 255
-10.4408 -16.8011 0.139421 0 255 255
-10.4344 -16.8021 0.139549 0 255 255
-10.4279 -16.8032 0.139756 0 255 255
-10.4215 -16.8043 0.140036 0 255 255
-10.4152 -16.8054 0.14039 0 255 255
-10.4089 -16.8066 0.140812 0 255 255
-10.4027 -16.8078 0.141296 0 255 255
-10.3967 -16.809 0.141821 0 255 255
-10.3908 -16.8103 0.142398 0 255 255
-10.385 -16.8116 0.143016 0 255 255
-10.3793 -16.813 0.143677 0 255 255
-10.3738 -16.8143 0.144365 0 255 255
-10.3684 -16.8156 0.145065 0 255 255
-10.3631 -16.8169 0.145763 0 255 255
-10.3579 -16.8181 0.146441 0 255 255
-10.3527 -16.8193 0.147092 0 255 255
-10.3477 -16.8204 0.147702 0 255 255
-10.3427 -16.8215 0.148261 0 255 255
-10.3384 -16.8224 0.148695 0 255 255
-10.3344 -16.8232 0.149058 0 255 255
-10.3303 -16.8239 0.149375 0 255 255
-10.3264 -16.8246 0.149654 0 255 255
-10.3224 -16.8253 0.1499 0 255 255
-10.3185 -16.8259 0.150125 0 255 255
-10.3145 -16.8264 0.150337 0 255 255
-10.3107 -16.827 0.150542 0 255 255
-10.3068 -16.8275 0.150753 0 255 255
-10.3029 -16.828 0.150982 0 255 255
-10.2991 -16.8285 0.151233 0 255 255
-10.2953 -16.8291 0.151516 0 255 255
-10.2915 -16.8296 0.151837 0 255 255
-10.2878 -16.8301 0.152202 0 255 255
-10.2833 -16.8308 0.152711 0 255 255
-10.2788 -16.8315 0.153287 0 255 255
-10.2744 -16.8323 0.153933 0 255 255
-10.27 -16.8331 0.154647 0 255 255
-10.2656 -16.8339 0.155416 0 255 255
-10.2613 -16.8348 0.156249 0 255 255
-10.257 -16.8357 0.157144 0 255 255
-10.2526 -16.8366 0.158081 0 255 255
-10.2483 -16.8376 0.159043 0 255 255
-10.2441 -16.8385 0.160025 0 255 255
-10.2398 -16.8395 0.161008 0 255 255
-10.2356 -16.8404 0.161992 0 255 255
-10.2313 -16.8413 0.162959 0 255 255
-10.2271 -16.8423 0.163896 0 255 255
-10.2228 -16.8432 0.164793 0 255 255
-10.2186 -16.844 0.165615 0 255 255
-10.2143 -16.8448 0.166382 0 255 255
-10.2101 -16.8456 0.16708 0 255 255
-10.2058 -16.8463 0.167701 0 255 255
-10.2024 -16.8469 0.168139 0 255 255
-10.1989 -16.8474 0.168509 0 255 255
-10.1954 -16.8479 0.168804 0 255 255
-10.192 -16.8484 0.169024 0 255 255
-10.1885 -16.8488 0.169168 0 255 255
-10.185 -16.8492 0.169239 0 255 255
-10.1815 -16.8496 0.169238 0 255 255
-10.178 -16.85 0.16917 0 255 255
-10.1745 -16.8504 0.16904 0 255 255
-10.171 -16.8507 0.16885 0 255 255
-10.1674 -16.8511 0.168609 0 255 255
-10.1639 -16.8515 0.168322 0 255 255
-10.1604 -16.8518 0.167997 0 255 255
-10.1568 -16.8522 0.167635 0 255 255
-10.1532 -16.8526 0.167244 0 255 255
-10.1496 -16.853 0.166827 0 255 255
-10.1461 -16.8534 0.166395 0 255 255
-10.1425 -16.8538 0.165947 0 255 255
-10.1389 -16.8543 0.16548 0 255 255
-10.1353 -16.8547 0.164998 0 255 255
-10.1317 -16.8551 0.164501 0 255 255
-10.128 -16.8555 0.16399 0 255 255
-10.1244 -16.856 0.163466 0 255 255
-10.1207 -16.8564 0.162923 0 255 255
-10.117 -16.8568 0.162362 0 255 255
-10.1133 -16.8572 0.161785 0 255 255
-10.1095 -16.8576 0.161189 0 255 255
-10.1058 -16.8579 0.160575 0 255 255
-10.102 -16.8583 0.159947 0 255 255
-10.0982 -16.8586 0.159301 0 255 255
-10.0943 -16.8589 0.158633 0 255 255
-10.0905 -16.8592 0.157945 0 255 255
-10.0865 -16.8595 0.157238 0 255 255
-10.0826 -16.8597 0.156516 0 255 255
-10.0786 -16.86 0.155769 0 255 255
-10.0746 -16.8602 0.155002 0 255 255
-10.0706 -16.8604 0.154217 0 255 255
-10.0666 -16.8605 0.153416 0 255 255
-10.0625 -16.8606 0.152618 0 255 255
-10.0585 -16.8607 0.151812 0 255 255
-10.0544 -16.8607 0.15099 0 255 255
-10.0503 -16.8607 0.15016 0 255 255
-10.0461 -16.8607 0.149325 0 255 255
-10.0419 -16.8606 0.148492 0 255 255
-10.0378 -16.8605 0.14767 0 255 255
-10.0335 -16.8604 0.146858 0 255 255
-10.0292 -16.8603 0.146068 0 255 255
-10.0249 -16.8601 0.145309 0 255 255
-10.0206 -16.8598 0.144587 0 255 255
-10.0162 -16.8596 0.14391 0 255 255
-10.0118 -16.8593 0.143285 0 255 255
-10.0073 -16.8591 0.142717 0 255 255
-10.0029 -16.8588 0.142214 0 255 255
-9.99838 -16.8585 0.141774 0 255 255
-9.99388 -16.8582 0.141402 0 255 255
-9.98932 -16.8579 0.141095 0 255 255
-9.98473 -16.8576 0.140854 0 255 255
-9.98011 -16.8573 0.140673 0 255 255
-9.97548 -16.857 0.140558 0 255 255
-9.97084 -16.8568 0.140491 0 255 255
-9.96613 -16.8565 0.140463 0 255 255
-9.96138 -16.8562 0.140469 0 255 255
-9.95658 -16.8559 0.140499 0 255 255
-9.95173 -16.8557 0.140545 0 255 255
-9.94686 -16.8554 0.140602 0 255 255
-9.9419 -16.8552 0.140664 0 255 255
-9.93688 -16.8549 0.14073 0 255 255
-9.93181 -16.8546 0.140801 0 255 255
-9.9267 -16.8544 0.140879 0 255 255
-9.92148 -16.8541 0.140972 0 255 255
-9.91625 -16.8538 0.141087 0 255 255
-9.91098 -16.8535 0.141233 0 255 255
-9.90569 -16.8532 0.141415 0 255 255
-9.90039 -16.8528 0.141637 0 255 255
-9.89511 -16.8524 0.141902 0 255 255
-9.88984 -16.852 0.142209 0 255 255
-9.88465 -16.8515 0.142555 0 255 255
-9.87946 -16.8509 0.142941 0 255 255
-9.87434 -16.8502 0.143362 0 255 255
-9.86932 -16.8495 0.143783 0 255 255
-9.86442 -16.8486 0.144224 0 255 255
-9.85959 -16.8477 0.144686 0 255 255
-9.85488 -16.8467 0.145156 0 255 255
-9.85028 -16.8456 0.14563 0 255 255
-9.84578 -16.8445 0.1461 0 255 255
-9.8414 -16.8434 0.146562 0 255 255
-9.83707 -16.8423 0.147015 0 255 255
-9.83281 -16.8411 0.147454 0 255 255
-9.8286 -16.84 0.147877 0 255 255
-9.82447 -16.8389 0.148282 0 255 255
-9.82033 -16.8379 0.148679 0 255 255
-9.81626 -16.837 0.149065 0 255 255
-9.81224 -16.8361 0.149446 0 255 255
-9.80829 -16.8354 0.149827 0 255 255
-9.80437 -16.8347 0.150216 0 255 255
-9.80049 -16.8342 0.150618 0 255 255
-9.7967 -16.8337 0.151035 0 255 255
-9.79292 -16.8333 0.151473 0 255 255
-9.78918 -16.8329 0.151937 0 255 255
-9.78548 -16.8326 0.152431 0 255 255
-9.78182 -16.8323 0.152955 0 255 255
-9.7774 -16.8319 0.153626 0 255 255
-9.77299 -16.8316 0.154339 0 255 255
-9.7688 -16.8312 0.155051 0 255 255
-9.76523 -16.8309 0.155689 0 255 255
-9.76167 -16.8305 0.156351 0 255 255
-9.75813 -16.8301 0.157036 0 255 255
-9.75461 -16.8296 0.15774 0 255 255
-9.75113 -16.829 0.158455 0 255 255
-9.74767 -16.8284 0.159181 0 255 255
-9.74419 -16.8277 0.159922 0 255 255
-9.74074 -16.8269 0.160656 0 255 255
-9.73731 -16.8261 0.161379 0 255 255
-9.73391 -16.8253 0.16208 0 255 255
-9.73051 -16.8244 0.162758 0 255 255
-9.72711 -16.8234 0.163404 0 255 255
-9.72371 -16.8225 0.164013 0 255 255
-9.72036 -16.8215 0.164557 0 255 255
-9.71699 -16.8205 0.165058 0 255 255
-9.71362 -16.8195 0.165509 0 255 255
-9.71025 -16.8186 0.16591 0 255 255
-9.70687 -16.8177 0.166258 0 255 255
-9.70349 -16.8168 0.166555 0 255 255
-9.70013 -16.816 0.166801 0 255 255
-9.69674 -16.8152 0.167 0 255 255
-9.69334 -16.8144 0.167154 0 255 255
-9.68993 -16.8137 0.167265 0 255 255
-9.68652 -16.8131 0.167337 0 255 255
-9.6831 -16.8125 0.167371 0 255 255
-9.67968 -16.812 0.16737 0 255 255
-9.67625 -16.8115 0.167336 0 255 255
-9.67281 -16.811 0.16727 0 255 255
-9.66939 -16.8105 0.167174 0 255 255
-9.66595 -16.8101 0.167051 0 255 255
-9.66252 -16.8097 0.166904 0 255 255
-9.65907 -16.8094 0.166733 0 255 255
-9.65562 -16.809 0.166541 0 255 255
-9.65216 -16.8086 0.16633 0 255 255
-9.6487 -16.8083 0.166097 0 255 255
-9.64526 -16.8079 0.165848 0 255 255
-9.64179 -16.8076 0.165578 0 255 255
-9.63831 -16.8073 0.165289 0 255 255
-9.63482 -16.8069 0.16498 0 255 255
-9.63132 -16.8066 0.164647 0 255 255
-9.62782 -16.8063 0.164292 0 255 255
-9.62428 -16.806 0.163908 0 255 255
-9.62071 -16.8056 0.163495 0 255 255
-9.61712 -16.8053 0.16305 0 255 255
-9.61352 -16.805 0.162575 0 255 255
-9.60988 -16.8047 0.162065 0 255 255
-9.60619 -16.8043 0.161517 0 255 255
-9.60246 -16.804 0.160934 0 255 255
-9.5987 -16.8036 0.160315 0 255 255
-9.5949 -16.8033 0.159663 0 255 255
-9.59108 -16.8029 0.158982 0 255 255
-9.58718 -16.8025 0.158258 0 255 255
-9.58329 -16.8022 0.15751 0 255 255
-9.57934 -16.8018 0.156725 0 255 255
-9.57536 -16.8014 0.155916 0 255 255
-9.57135 -16.8011 0.155073 0 255 255
-9.56734 -16.8007 0.154203 0 255 255
-9.56327 -16.8004 0.1533 0 255 255
-9.55917 -16.8001 0.152373 0 255 255
-9.55503 -16.7997 0.151425 0 255 255
-9.55088 -16.7994 0.150464 0 255 255
-9.54672 -16.7992 0.149501 0 255 255
-9.54251 -16.7989 0.148531 0 255 255
-9.53827 -16.7987 0.147568 0 255 255
-9.53402 -16.7984 0.146619 0 255 255
-9.52939 -16.7982 0.145615 0 255 255
-9.52412 -16.798 0.144513 0 255 255
-9.51887 -16.7977 0.143465 0 255 255
-9.5136 -16.7975 0.142473 0 255 255
-9.50832 -16.7973 0.141543 0 255 255
-9.50304 -16.7971 0.140678 0 255 255
-9.49775 -16.7969 0.13988 0 255 255
-9.49248 -16.7967 0.139155 0 255 255
-9.48722 -16.7964 0.138494 0 255 255
-9.48191 -16.7962 0.13789 0 255 255
-9.47759 -16.796 0.137476 0 255 255
-9.47327 -16.7958 0.137103 0 255 255
-9.46893 -16.7956 0.136766 0 255 255
-9.4646 -16.7953 0.136462 0 255 255
-9.46021 -16.7951 0.13618 0 255 255
-9.45579 -16.7948 0.135917 0 255 255
-9.45133 -16.7946 0.135669 0 255 255
-9.44686 -16.7943 0.135432 0 255 255
-9.44231 -16.794 0.135199 0 255 255
-9.43773 -16.7937 0.134971 0 255 255
-9.43306 -16.7934 0.134744 0 255 255
-9.4283 -16.7931 0.134515 0 255 255
-9.42355 -16.7928 0.13429 0 255 255
-9.41871 -16.7925 0.134068 0 255 255
-9.41381 -16.7921 0.133856 0 255 255
-9.40886 -16.7917 0.133659 0 255 255
-9.40386 -16.7913 0.133484 0 255 255
-9.39882 -16.7909 0.133339 0 255 255
-9.39378 -16.7905 0.133231 0 255 255
-9.38845 -16.79 0.13316 0 255 255
-9.38335 -16.7895 0.133139 0 255 255
-9.37733 -16.789 0.133168 0 255 255
-9.3711 -16.7885 0.133259 0 255 255
-9.36494 -16.788 0.133412 0 255 255
-9.35877 -16.7875 0.133629 0 255 255
-9.35266 -16.7871 0.133908 0 255 255
-9.34661 -16.7868 0.134249 0 255 255
-9.34065 -16.7865 0.13465 0 255 255
-9.33481 -16.7863 0.135104 0 255 255
-9.32905 -16.7862 0.135613 0 255 255
-9.32342 -16.7861 0.136169 0 255 255
-9.31795 -16.7861 0.136759 0 255 255
-9.31255 -16.786 0.137383 0 255 255
-9.30729 -16.786 0.138024 0 255 255
-9.30219 -16.786 0.138666 0 255 255
-9.29725 -16.786 0.139297 0 255 255
-9.29238 -16.7859 0.139913 0 255 255
-9.28296 -16.7857 0.141045 0 255 255
-9.27921 -16.7856 0.141464 0 255 255
-9.27549 -16.7855 0.141842 0 255 255
-9.27182 -16.7853 0.142181 0 255 255
-9.26818 -16.7851 0.142483 0 255 255
-9.26456 -16.7848 0.142755 0 255 255
-9.26097 -16.7846 0.143003 0 255 255
-9.25739 -16.7843 0.14324 0 255 255
-9.25381 -16.784 0.143475 0 255 255
-9.25024 -16.7837 0.143718 0 255 255
-9.24669 -16.7834 0.143981 0 255 255
-9.24314 -16.7832 0.144276 0 255 255
-9.23961 -16.7829 0.144611 0 255 255
-9.23531 -16.7827 0.14508 0 255 255
-9.23105 -16.7824 0.145617 0 255 255
-9.22675 -16.7823 0.146241 0 255 255
-9.2225 -16.7822 0.146943 0 255 255
-9.21826 -16.7821 0.147725 0 255 255
-9.21405 -16.7821 0.148579 0 255 255
-9.20988 -16.7822 0.14949 0 255 255
-9.20572 -16.7823 0.150452 0 255 255
-9.20157 -16.7825 0.151454 0 255 255
-9.19743 -16.7827 0.152482 0 255 255
-9.19329 -16.7829 0.153521 0 255 255
-9.18918 -16.7831 0.15455 0 255 255
-9.18505 -16.7834 0.155569 0 255 255
-9.18092 -16.7836 0.156559 0 255 255
-9.1768 -16.7838 0.157509 0 255 255
-9.17271 -16.7841 0.158402 0 255 255
-9.16859 -16.7842 0.159237 0 255 255
-9.16448 -16.7844 0.160001 0 255 255
-9.16038 -16.7845 0.160689 0 255 255
-9.15704 -16.7846 0.161184 0 255 255
-9.1537 -16.7846 0.161611 0 255 255
-9.15038 -16.7846 0.161967 0 255 255
-9.14709 -16.7846 0.162251 0 255 255
-9.14378 -16.7845 0.162467 0 255 255
-9.14049 -16.7844 0.162614 0 255 255
-9.13721 -16.7843 0.162694 0 255 255
-9.13393 -16.7841 0.162712 0 255 255
-9.13066 -16.7839 0.162671 0 255 255
-9.12741 -16.7837 0.162577 0 255 255
-9.12415 -16.7835 0.162433 0 255 255
-9.12087 -16.7832 0.162245 0 255 255
-9.11759 -16.783 0.162019 0 255 255
-9.11433 -16.7828 0.16176 0 255 255
-9.11105 -16.7825 0.16147 0 255 255
-9.10777 -16.7823 0.161153 0 255 255
-9.10447 -16.782 0.160814 0 255 255
-9.10118 -16.7818 0.160454 0 255 255
-9.09787 -16.7815 0.160076 0 255 255
-9.09455 -16.7813 0.159681 0 255 255
-9.09125 -16.781 0.159272 0 255 255
-9.0879 -16.7808 0.158845 0 255 255
-9.08453 -16.7805 0.158404 0 255 255
-9.08115 -16.7803 0.15795 0 255 255
-9.07776 -16.78 0.157487 0 255 255
-9.07433 -16.7797 0.157011 0 255 255
-9.07087 -16.7795 0.156526 0 255 255
-9.06738 -16.7792 0.156032 0 255 255
-9.06385 -16.7789 0.155531 0 255 255
-9.06032 -16.7786 0.155026 0 255 255
-9.05668 -16.7782 0.154508 0 255 255
-9.05302 -16.7779 0.153981 0 255 255
-9.04932 -16.7775 0.153445 0 255 255
-9.04562 -16.7772 0.152902 0 255 255
-9.04186 -16.7768 0.152344 0 255 255
-9.03808 -16.7764 0.151772 0 255 255
-9.03428 -16.7759 0.151185 0 255 255
-9.03046 -16.7755 0.150581 0 255 255
-9.02662 -16.775 0.149958 0 255 255
-9.02279 -16.7745 0.14932 0 255 255
-9.01893 -16.7739 0.148656 0 255 255
-9.01505 -16.7733 0.147969 0 255 255
-9.01116 -16.7727 0.147259 0 255 255
-9.00725 -16.772 0.146526 0 255 255
-9.00335 -16.7713 0.145776 0 255 255
-8.9994 -16.7705 0.145003 0 255 255
-8.99544 -16.7696 0.144216 0 255 255
-8.99145 -16.7687 0.143417 0 255 255
-8.98744 -16.7678 0.142614 0 255 255
-8.98342 -16.7669 0.141817 0 255 255
-8.97932 -16.7659 0.141019 0 255 255
-8.97518 -16.7649 0.140236 0 255 255
-8.971 -16.7639 0.139476 0 255 255
-8.96646 -16.7628 0.138689 0 255 255
-8.96127 -16.7616 0.137846 0 255 255
-8.95603 -16.7604 0.137059 0 255 255
-8.95074 -16.7593 0.136338 0 255 255
-8.94544 -16.7582 0.135692 0 255 255
-8.94009 -16.7571 0.135123 0 255 255
-8.93465 -16.7561 0.134627 0 255 255
-8.9292 -16.7551 0.134212 0 255 255
-8.92367 -16.7541 0.13387 0 255 255
-8.91809 -16.7532 0.133599 0 255 255
-8.91246 -16.7522 0.133393 0 255 255
-8.90678 -16.7513 0.133245 0 255 255
-8.90106 -16.7504 0.133146 0 255 255
-8.89532 -16.7495 0.133092 0 255 255
-8.8895 -16.7486 0.133074 0 255 255
-8.88364 -16.7477 0.133092 0 255 255
-8.87774 -16.7467 0.133146 0 255 255
-8.87179 -16.7457 0.133242 0 255 255
-8.86585 -16.7447 0.133391 0 255 255
-8.85979 -16.7436 0.133623 0 255 255
-8.85371 -16.7425 0.13393 0 255 255
-8.84763 -16.7413 0.134319 0 255 255
-8.84161 -16.7401 0.134793 0 255 255
-8.83558 -16.7388 0.135361 0 255 255
-8.82961 -16.7374 0.136022 0 255 255
-8.82371 -16.7359 0.136774 0 255 255
-8.81788 -16.7343 0.137613 0 255 255
-8.81216 -16.7326 0.138532 0 255 255
-8.80655 -16.7308 0.139521 0 255 255
-8.80179 -16.7292 0.140426 0 255 255
-8.79739 -16.7276 0.141318 0 255 255
-8.79306 -16.726 0.142233 0 255 255
-8.78882 -16.7244 0.143155 0 255 255
-8.78464 -16.7227 0.144067 0 255 255
-8.78056 -16.7211 0.144949 0 255 255
-8.77649 -16.7195 0.145798 0 255 255
-8.77248 -16.7179 0.146597 0 255 255
-8.76762 -16.7162 0.147507 0 255 255
-8.7628 -16.7145 0.148347 0 255 255
-8.75799 -16.7129 0.149117 0 255 255
-8.75322 -16.7116 0.149812 0 255 255
-8.74848 -16.7103 0.150437 0 255 255
-8.74377 -16.7093 0.151001 0 255 255
-8.73912 -16.7084 0.151515 0 255 255
-8.73447 -16.7076 0.151998 0 255 255
-8.72985 -16.707 0.152461 0 255 255
-8.72526 -16.7064 0.152918 0 255 255
-8.72069 -16.7059 0.153381 0 255 255
-8.71616 -16.7055 0.153859 0 255 255
-8.71164 -16.705 0.154367 0 255 255
-8.70714 -16.7046 0.154912 0 255 255
-8.70269 -16.7042 0.155497 0 255 255
-8.69822 -16.7037 0.156139 0 255 255
-8.69382 -16.7032 0.15683 0 255 255
-8.68946 -16.7026 0.157575 0 255 255
-8.68515 -16.702 0.158372 0 255 255
-8.6809 -16.7012 0.159218 0 255 255
-8.6767 -16.7004 0.160107 0 255 255
-8.67255 -16.6995 0.161035 0 255 255
-8.66845 -16.6985 0.161999 0 255 255
-8.66442 -16.6975 0.162979 0 255 255
-8.66113 -16.6965 0.163794 0 255 255
-8.65786 -16.6956 0.164608 0 255 255
-8.6546 -16.6946 0.165409 0 255 255
-8.65137 -16.6936 0.166185 0 255 255
-8.64813 -16.6926 0.166937 0 255 255
-8.64489 -16.6916 0.167652 0 255 255
-8.64165 -16.6906 0.168326 0 255 255
-8.6384 -16.6896 0.168954 0 255 255
-8.63513 -16.6887 0.169531 0 255 255
-8.63188 -16.6878 0.170051 0 255 255
-8.62843 -16.6869 0.170541 0 255 255
-8.62446 -16.6858 0.171031 0 255 255
-8.62043 -16.6849 0.171455 0 255 255
-8.61637 -16.6839 0.171808 0 255 255
-8.61225 -16.6831 0.172092 0 255 255
-8.60814 -16.6822 0.172305 0 255 255
-8.60399 -16.6814 0.172452 0 255 255
-8.59987 -16.6807 0.172534 0 255 255
-8.59561 -16.68 0.172549 0 255 255
-8.59132 -16.6793 0.172506 0 255 255
-8.58703 -16.6787 0.172412 0 255 255
-8.58269 -16.678 0.17227 0 255 255
-8.57833 -16.6774 0.172085 0 255 255
-8.57395 -16.6768 0.171864 0 255 255
-8.56955 -16.6762 0.171611 0 255 255
-8.56517 -16.6756 0.171335 0 255 255
-8.56075 -16.675 0.171037 0 255 255
-8.55632 -16.6744 0.170723 0 255 255
-8.55186 -16.6739 0.170396 0 255 255
-8.54741 -16.6733 0.170062 0 255 255
-8.54298 -16.6727 0.169722 0 255 255
-8.53852 -16.6721 0.169375 0 255 255
-8.53403 -16.6715 0.169019 0 255 255
-8.52975 -16.671 0.168672 0 255 255
-8.52558 -16.6704 0.168326 0 255 255
-8.52136 -16.6699 0.167965 0 255 255
-8.51714 -16.6694 0.167592 0 255 255
-8.51287 -16.6689 0.167203 0 255 255
-8.50819 -16.6683 0.166742 0 255 255
-8.50348 -16.6678 0.166263 0 255 255
-8.49873 -16.6672 0.165765 0 255 255
-8.49398 -16.6667 0.16525 0 255 255
-8.48917 -16.6661 0.164711 0 255 255
-8.48432 -16.6656 0.164149 0 255 255
-8.47943 -16.665 0.163564 0 255 255
-8.47452 -16.6645 0.162954 0 255 255
-8.4696 -16.6639 0.162324 0 255 255
-8.46459 -16.6633 0.16166 0 255 255
-8.45958 -16.6628 0.160975 0 255 255
-8.45457 -16.6622 0.160269 0 255 255
-8.44946 -16.6615 0.15953 0 255 255
-8.44435 -16.6609 0.158772 0 255 255
-8.43921 -16.6603 0.157993 0 255 255
-8.43422 -16.6597 0.157224 0 255 255
-8.42963 -16.6591 0.156509 0 255 255
-8.42494 -16.6585 0.155774 0 255 255
-8.42014 -16.6579 0.155021 0 255 255
-8.41527 -16.6573 0.154258 0 255 255
-8.40994 -16.6567 0.153445 0 255 255
-8.4046 -16.6561 0.152637 0 255 255
-8.39923 -16.6554 0.151838 0 255 255
-8.39384 -16.6548 0.151051 0 255 255
-8.38847 -16.6542 0.150284 0 255 255
-8.38305 -16.6536 0.149531 0 255 255
-8.37761 -16.6531 0.1488 0 255 255
-8.37215 -16.6526 0.148097 0 255 255
-8.36666 -16.6521 0.147423 0 255 255
-8.36119 -16.6516 0.146787 0 255 255
-8.35565 -16.6512 0.146182 0 255 255
-8.35008 -16.6508 0.145614 0 255 255
-8.34451 -16.6505 0.145088 0 255 255
-8.33885 -16.6502 0.144598 0 255 255
-8.33315 -16.6499 0.144146 0 255 255
-8.3274 -16.6497 0.143733 0 255 255
-8.32163 -16.6495 0.143359 0 255 255
-8.31577 -16.6493 0.143018 0 255 255
-8.30984 -16.6491 0.142712 0 255 255
-8.30386 -16.6489 0.142438 0 255 255
-8.29783 -16.6487 0.142182 0 255 255
-8.29171 -16.6485 0.141961 0 255 255
-8.28553 -16.6482 0.14178 0 255 255
-8.27931 -16.648 0.141647 0 255 255
-8.27304 -16.6477 0.141573 0 255 255
-8.26679 -16.6473 0.141568 0 255 255
-8.26047 -16.647 0.14164 0 255 255
-8.25415 -16.6467 0.141793 0 255 255
-8.24783 -16.6464 0.142026 0 255 255
-8.24152 -16.6461 0.142339 0 255 255
-8.23523 -16.6459 0.14273 0 255 255
-8.229 -16.6457 0.143193 0 255 255
-8.2228 -16.6455 0.143728 0 255 255
-8.21662 -16.6454 0.14434 0 255 255
-8.21045 -16.6454 0.145026 0 255 255
-8.20437 -16.6454 0.14578 0 255 255
-8.19841 -16.6455 0.146587 0 255 255
-8.19259 -16.6456 0.147435 0 255 255
-8.18683 -16.6457 0.148318 0 255 255
-8.18118 -16.6459 0.149213 0 255 255
-8.17566 -16.646 0.150075 0 255 255
-8.17027 -16.6462 0.150906 0 255 255
-8.16493 -16.6463 0.1517 0 255 255
-8.16062 -16.6464 0.152299 0 255 255
-8.15637 -16.6464 0.152838 0 255 255
-8.15216 -16.6464 0.153312 0 255 255
-8.14802 -16.6463 0.153713 0 255 255
-8.14388 -16.6462 0.154049 0 255 255
-8.13977 -16.6461 0.154324 0 255 255
-8.13567 -16.6459 0.154546 0 255 255
-8.13159 -16.6457 0.154727 0 255 255
-8.12754 -16.6455 0.154879 0 255 255
-8.1235 -16.6452 0.155015 0 255 255
-8.11946 -16.645 0.155147 0 255 255
-8.11544 -16.6447 0.155288 0 255 255
-8.11144 -16.6444 0.155447 0 255 255
-8.10747 -16.6442 0.155638 0 255 255
-8.10355 -16.644 0.155869 0 255 255
-8.09961 -16.6438 0.156152 0 255 255
-8.09573 -16.6436 0.156491 0 255 255
-8.09102 -16.6434 0.156982 0 255 255
-8.08722 -16.6434 0.157454 0 255 255
-8.08345 -16.6433 0.157994 0 255 255
-8.07946 -16.6433 0.158637 0 255 255
-8.07494 -16.6434 0.15944 0 255 255
-8.07043 -16.6434 0.160309 0 255 255
-8.06593 -16.6435 0.161228 0 255 255
-8.06146 -16.6436 0.162186 0 255 255
-8.05702 -16.6437 0.163162 0 255 255
-8.05257 -16.6439 0.164155 0 255 255
-8.04813 -16.644 0.165143 0 255 255
-8.04372 -16.6441 0.166105 0 255 255
-8.03927 -16.6441 0.167044 0 255 255
-8.03563 -16.6442 0.167771 0 255 255
-8.03203 -16.6442 0.168443 0 255 255
-8.02845 -16.6442 0.169052 0 255 255
-8.02486 -16.6442 0.169597 0 255 255
-8.02128 -16.6441 0.170069 0 255 255
-8.0177 -16.644 0.170464 0 255 255
-8.01415 -16.6439 0.170778 0 255 255
-8.01061 -16.6438 0.171013 0 255 255
-8.00707 -16.6436 0.17117 0 255 255
-8.00352 -16.6435 0.171248 0 255 255
-7.99998 -16.6433 0.171252 0 255 255
-7.99646 -16.6431 0.171187 0 255 255
-7.99291 -16.6429 0.171058 0 255 255
-7.98935 -16.6427 0.170872 0 255 255
-7.98579 -16.6424 0.170635 0 255 255
-7.98222 -16.6422 0.170352 0 255 255
-7.97868 -16.642 0.170034 0 255 255
-7.97511 -16.6417 0.169682 0 255 255
-7.97156 -16.6415 0.169309 0 255 255
-7.96799 -16.6412 0.168914 0 255 255
-7.96441 -16.641 0.168508 0 255 255
-7.96084 -16.6407 0.168094 0 255 255
-7.95726 -16.6405 0.167676 0 255 255
-7.95368 -16.6402 0.167257 0 255 255
-7.9501 -16.6399 0.166838 0 255 255
-7.9465 -16.6396 0.16642 0 255 255
-7.9429 -16.6393 0.166003 0 255 255
-7.93932 -16.639 0.165588 0 255 255
-7.9357 -16.6386 0.165175 0 255 255
-7.93206 -16.6383 0.164758 0 255 255
-7.92841 -16.6379 0.164334 0 255 255
-7.92475 -16.6375 0.163903 0 255 255
-7.91737 -16.6367 0.163016 0 255 255
-7.91363 -16.6362 0.162557 0 255 255
-7.90986 -16.6358 0.162088 0 255 255
-7.90606 -16.6353 0.161607 0 255 255
-7.90226 -16.6348 0.161117 0 255 255
-7.8984 -16.6344 0.160609 0 255 255
-7.89451 -16.6339 0.160084 0 255 255
-7.8906 -16.6334 0.159541 0 255 255
-7.88666 -16.6329 0.158978 0 255 255
-7.88271 -16.6324 0.158395 0 255 255
-7.87872 -16.6318 0.157789 0 255 255
-7.87473 -16.6313 0.157162 0 255 255
-7.8707 -16.6307 0.156504 0 255 255
-7.86663 -16.6301 0.155816 0 255 255
-7.86256 -16.6294 0.155103 0 255 255
-7.85842 -16.6287 0.154353 0 255 255
-7.85425 -16.628 0.153574 0 255 255
-7.85005 -16.6273 0.152767 0 255 255
-7.8458 -16.6265 0.151936 0 255 255
-7.84152 -16.6257 0.151088 0 255 255
-7.83722 -16.625 0.150235 0 255 255
-7.83286 -16.6242 0.149375 0 255 255
-7.82846 -16.6233 0.148521 0 255 255
-7.82402 -16.6225 0.147682 0 255 255
-7.81954 -16.6217 0.146866 0 255 255
-7.81504 -16.6209 0.146083 0 255 255
-7.8105 -16.6201 0.145341 0 255 255
-7.80593 -16.6193 0.14465 0 255 255
-7.8014 -16.6185 0.144022 0 255 255
-7.79675 -16.6177 0.143445 0 255 255
-7.7921 -16.6169 0.142935 0 255 255
-7.78745 -16.616 0.142491 0 255 255
-7.78274 -16.6152 0.142105 0 255 255
-7.77801 -16.6143 0.141776 0 255 255
-7.77324 -16.6134 0.141498 0 255 255
-7.76843 -16.6124 0.141268 0 255 255
-7.76359 -16.6115 0.141073 0 255 255
-7.75873 -16.6104 0.140907 0 255 255
-7.75378 -16.6094 0.14076 0 255 255
-7.74879 -16.6083 0.140626 0 255 255
-7.74373 -16.6071 0.140507 0 255 255
-7.73865 -16.606 0.140405 0 255 255
-7.73347 -16.6048 0.140328 0 255 255
-7.72825 -16.6036 0.140286 0 255 255
-7.72294 -16.6023 0.14029 0 255 255
-7.71705 -16.6009 0.140355 0 255 255
-7.71124 -16.5995 0.140488 0 255 255
-7.70555 -16.5981 0.140691 0 255 255
-7.70009 -16.5967 0.140962 0 255 255
-7.69483 -16.5953 0.141301 0 255 255
-7.68971 -16.5938 0.141712 0 255 255
-7.68466 -16.5923 0.142201 0 255 255
-7.6797 -16.5907 0.142768 0 255 255
-7.67484 -16.5891 0.143407 0 255 255
-7.67008 -16.5874 0.144114 0 255 255
-7.66543 -16.5857 0.144876 0 255 255
-7.65984 -16.5835 0.145885 0 255 255
-7.65441 -16.5812 0.146923 0 255 255
-7.64904 -16.579 0.147983 0 255 255
-7.64377 -16.5767 0.149039 0 255 255
-7.63859 -16.5745 0.150074 0 255 255
-7.63348 -16.5723 0.151073 0 255 255
-7.62847 -16.5701 0.152019 0 255 255
-7.62348 -16.5681 0.152917 0 255 255
-7.61855 -16.5661 0.153755 0 255 255
-7.61366 -16.5642 0.15453 0 255 255
-7.60881 -16.5625 0.155243 0 255 255
-7.60399 -16.5608 0.155898 0 255 255
-7.59921 -16.5593 0.156501 0 255 255
-7.59444 -16.5578 0.15706 0 255 255
-7.58973 -16.5565 0.15758 0 255 255
-7.58501 -16.5552 0.158077 0 255 255
-7.58032 -16.554 0.158555 0 255 255
-7.57567 -16.5529 0.159019 0 255 255
-7.57103 -16.5518 0.159483 0 255 255
-7.5664 -16.5508 0.159937 0 255 255
-7.56181 -16.5498 0.160399 0 255 255
-7.54829 -16.5466 0.161883 0 255 255
-7.54386 -16.5455 0.162425 0 255 255
-7.53947 -16.5443 0.162994 0 255 255
-7.53514 -16.5431 0.163591 0 255 255
-7.53087 -16.5418 0.164211 0 255 255
-7.52661 -16.5405 0.164858 0 255 255
-7.52239 -16.5391 0.165525 0 255 255
-7.51875 -16.5379 0.166113 0 255 255
-7.51534 -16.5367 0.166674 0 255 255
-7.51193 -16.5355 0.167233 0 255 255
-7.50853 -16.5343 0.167783 0 255 255
-7.50513 -16.5331 0.168318 0 255 255
-7.50176 -16.5319 0.168827 0 255 255
-7.49826 -16.5307 0.169329 0 255 255
-7.49446 -16.5294 0.169836 0 255 255
-7.49059 -16.528 0.170313 0 255 255
-7.48722 -16.5269 0.170669 0 255 255
-7.48385 -16.5257 0.170987 0 255 255
-7.48046 -16.5246 0.171269 0 255 255
-7.47708 -16.5235 0.171514 0 255 255
-7.47368 -16.5225 0.171723 0 255 255
-7.4703 -16.5215 0.171896 0 255 255
-7.46688 -16.5205 0.172036 0 255 255
-7.46346 -16.5195 0.172143 0 255 255
-7.46001 -16.5185 0.172218 0 255 255
-7.45606 -16.5174 0.172269 0 255 255
-7.45215 -16.5164 0.172284 0 255 255
-7.44829 -16.5154 0.172266 0 255 255
-7.44447 -16.5143 0.172215 0 255 255
-7.4407 -16.5134 0.172131 0 255 255
-7.43699 -16.5124 0.172013 0 255 255
-7.43333 -16.5114 0.171862 0 255 255
-7.42969 -16.5105 0.171677 0 255 255
-7.42609 -16.5095 0.171459 0 255 255
-7.42246 -16.5086 0.171204 0 255 255
-7.41881 -16.5076 0.170915 0 255 255
-7.41525 -16.5067 0.170607 0 255 255
-7.4117 -16.5057 0.170273 0 255 255
-7.40811 -16.5048 0.16991 0 255 255
-7.40451 -16.5038 0.169522 0 255 255
-7.40089 -16.5029 0.169111 0 255 255
-7.39725 -16.5019 0.168679 0 255 255
-7.39361 -16.5009 0.168232 0 255 255
-7.38993 -16.5 0.167764 0 255 255
-7.38621 -16.499 0.167282 0 255 255
-7.38248 -16.498 0.166787 0 255 255
-7.37871 -16.497 0.166284 0 255 255
-7.37493 -16.4961 0.165773 0 255 255
-7.37111 -16.4951 0.165257 0 255 255
-7.36732 -16.4942 0.164741 0 255 255
-7.36344 -16.4932 0.164211 0 255 255
-7.35909 -16.4922 0.163615 0 255 255
-7.35456 -16.4911 0.162991 0 255 255
-7.35001 -16.49 0.16236 0 255 255
-7.34546 -16.4889 0.161723 0 255 255
-7.34152 -16.488 0.161173 0 255 255
-7.33755 -16.4871 0.160611 0 255 255
-7.33356 -16.4862 0.160035 0 255 255
-7.32954 -16.4853 0.159444 0 255 255
-7.32552 -16.4844 0.158843 0 255 255
-7.32144 -16.4836 0.158224 0 255 255
-7.31733 -16.4827 0.157593 0 255 255
-7.31319 -16.4819 0.156952 0 255 255
-7.30903 -16.481 0.156305 0 255 255
-7.30483 -16.4802 0.155648 0 255 255
-7.29991 -16.4793 0.154882 0 255 255
-7.29483 -16.4783 0.154096 0 255 255
-7.2897 -16.4774 0.153312 0 255 255
-7.28457 -16.4764 0.15254 0 255 255
-7.27936 -16.4755 0.151772 0 255 255
-7.27414 -16.4746 0.151021 0 255 255
-7.26879 -16.4737 0.150276 0 255 255
-7.26341 -16.4728 0.149551 0 255 255
-7.25797 -16.4719 0.148848 0 255 255
-7.25254 -16.4711 0.148176 0 255 255
-7.24704 -16.4702 0.14753 0 255 255
-7.24151 -16.4694 0.146913 0 255 255
-7.23593 -16.4686 0.146326 0 255 255
-7.23032 -16.4678 0.145767 0 255 255
-7.22575 -16.4672 0.14534 0 255 255
-7.22111 -16.4666 0.144933 0 255 255
-7.21642 -16.466 0.144546 0 255 255
-7.2117 -16.4654 0.144181 0 255 255
-7.20671 -16.4648 0.143819 0 255 255
-7.20113 -16.4642 0.143441 0 255 255
-7.19554 -16.4635 0.143085 0 255 255
-7.18997 -16.4629 0.142752 0 255 255
-7.18446 -16.4622 0.142445 0 255 255
-7.17899 -16.4615 0.142162 0 255 255
-7.17355 -16.4608 0.141907 0 255 255
-7.16815 -16.4601 0.141683 0 255 255
-7.16268 -16.4594 0.141495 0 255 255
-7.15712 -16.4586 0.141351 0 255 255
-7.15141 -16.4578 0.141259 0 255 255
-7.13936 -16.4559 0.141268 0 255 255
-7.13415 -16.4552 0.141334 0 255 255
-7.12891 -16.4545 0.141464 0 255 255
-7.12368 -16.4537 0.141656 0 255 255
-7.11847 -16.4531 0.141908 0 255 255
-7.1133 -16.4524 0.14222 0 255 255
-7.10817 -16.4518 0.142591 0 255 255
-7.10313 -16.4513 0.143018 0 255 255
-7.09812 -16.4508 0.143504 0 255 255
-7.09242 -16.4502 0.144126 0 255 255
-7.08649 -16.4497 0.144839 0 255 255
-7.08069 -16.4492 0.145592 0 255 255
-7.07497 -16.4487 0.146378 0 255 255
-7.06967 -16.4483 0.147135 0 255 255
-7.06491 -16.4479 0.147824 0 255 255
-7.06049 -16.4475 0.148459 0 255 255
-7.05617 -16.4471 0.149063 0 255 255
-7.0519 -16.4466 0.14963 0 255 255
-7.0477 -16.4461 0.150149 0 255 255
-7.04358 -16.4455 0.150608 0 255 255
-7.03949 -16.445 0.151011 0 255 255
-7.03546 -16.4443 0.151355 0 255 255
-7.03056 -16.4435 0.151718 0 255 255
-7.02658 -16.4428 0.151969 0 255 255
-7.02263 -16.442 0.152182 0 255 255
-7.01869 -16.4412 0.152366 0 255 255
-7.01476 -16.4405 0.15253 0 255 255
-7.01085 -16.4397 0.152685 0 255 255
-7.00697 -16.4389 0.152839 0 255 255
-7.00244 -16.438 0.153031 0 255 255
-6.99769 -16.4371 0.153259 0 255 255
-6.99295 -16.4362 0.153526 0 255 255
-6.98825 -16.4354 0.15384 0 255 255
-6.98354 -16.4346 0.154215 0 255 255
-6.97884 -16.4339 0.154657 0 255 255
-6.97416 -16.4332 0.155167 0 255 255
-6.96952 -16.4326 0.155742 0 255 255
-6.96487 -16.4321 0.156383 0 255 255
-6.96025 -16.4316 0.157076 0 255 255
-6.95565 -16.4312 0.157814 0 255 255
-6.95108 -16.4308 0.158585 0 255 255
-6.94652 -16.4304 0.159379 0 255 255
-6.94202 -16.4301 0.160181 0 255 255
-6.9375 -16.4297 0.161 0 255 255
-6.93301 -16.4293 0.161809 0 255 255
-6.92854 -16.429 0.162594 0 255 255
-6.92409 -16.4286 0.163344 0 255 255
-6.91966 -16.4281 0.164047 0 255 255
-6.91528 -16.4277 0.16469 0 255 255
-6.9109 -16.4271 0.16527 0 255 255
-6.90655 -16.4266 0.165775 0 255 255
-6.903 -16.426 0.166124 0 255 255
-6.89948 -16.4255 0.166403 0 255 255
-6.89597 -16.4249 0.16661 0 255 255
-6.8925 -16.4242 0.166743 0 255 255
-6.88903 -16.4235 0.166804 0 255 255
-6.88556 -16.4228 0.166795 0 255 255
-6.88211 -16.422 0.166719 0 255 255
-6.87866 -16.4212 0.166582 0 255 255
-6.87521 -16.4203 0.166389 0 255 255
-6.86834 -16.4185 0.165857 0 255 255
-6.86493 -16.4176 0.165538 0 255 255
-6.86151 -16.4167 0.165185 0 255 255
-6.85808 -16.4158 0.164802 0 255 255
-6.85467 -16.4149 0.164396 0 255 255
-6.85122 -16.414 0.163966 0 255 255
-6.84777 -16.413 0.163518 0 255 255
-6.8443 -16.4121 0.163055 0 255 255
-6.84085 -16.4112 0.162581 0 255 255
-6.83736 -16.4102 0.162092 0 255 255
-6.83387 -16.4093 0.161591 0 255 255
-6.83036 -16.4083 0.161079 0 255 255
-6.82684 -16.4074 0.160553 0 255 255
-6.8233 -16.4064 0.160014 0 255 255
-6.81974 -16.4054 0.159461 0 255 255
-6.81616 -16.4044 0.158892 0 255 255
-6.81258 -16.4034 0.15831 0 255 255
-6.80895 -16.4024 0.157707 0 255 255
-6.8053 -16.4013 0.157087 0 255 255
-6.80162 -16.4003 0.156448 0 255 255
-6.79794 -16.3992 0.155795 0 255 255
-6.79422 -16.3981 0.15512 0 255 255
-6.79046 -16.397 0.154427 0 255 255
-6.7867 -16.3959 0.153713 0 255 255
-6.78294 -16.3948 0.152986 0 255 255
-6.77911 -16.3937 0.15223 0 255 255
-6.77528 -16.3926 0.151459 0 255 255
-6.77144 -16.3914 0.15067 0 255 255
-6.76758 -16.3903 0.149863 0 255 255
-6.7637 -16.3892 0.14904 0 255 255
-6.75983 -16.388 0.148205 0 255 255
-6.75592 -16.3869 0.147351 0 255 255
-6.75199 -16.3857 0.146484 0 255 255
-6.74805 -16.3845 0.145607 0 255 255
-6.74408 -16.3833 0.144722 0 255 255
-6.74009 -16.3821 0.143834 0 255 255
-6.73613 -16.3808 0.142959 0 255 255
-6.73207 -16.3795 0.142075 0 255 255
-6.728 -16.3782 0.14121 0 255 255
-6.72391 -16.3768 0.140364 0 255 255
-6.71982 -16.3755 0.139548 0 255 255
-6.71567 -16.374 0.138758 0 255 255
-6.71152 -16.3726 0.138018 0 255 255
-6.70735 -16.3712 0.13732 0 255 255
-6.70314 -16.3697 0.136669 0 255 255
-6.69893 -16.3682 0.136073 0 255 255
-6.69466 -16.3667 0.135528 0 255 255
-6.69036 -16.3652 0.13504 0 255 255
-6.68603 -16.3637 0.134611 0 255 255
-6.68163 -16.3621 0.134238 0 255 255
-6.67725 -16.3606 0.133928 0 255 255
-6.67283 -16.359 0.133672 0 255 255
-6.66837 -16.3574 0.133467 0 255 255
-6.66384 -16.3558 0.133309 0 255 255
-6.65927 -16.3542 0.133192 0 255 255
-6.65468 -16.3525 0.133111 0 255 255
-6.65002 -16.3508 0.13306 0 255 255
-6.64532 -16.3491 0.133035 0 255 255
-6.64058 -16.3473 0.133037 0 255 255
-6.63579 -16.3455 0.133068 0 255 255
-6.63097 -16.3436 0.133137 0 255 255
-6.62612 -16.3418 0.133249 0 255 255
-6.62126 -16.3399 0.133431 0 255 255
-6.61638 -16.3379 0.133671 0 255 255
-6.61155 -16.3359 0.133972 0 255 255
-6.6067 -16.3339 0.134342 0 255 255
-6.6019 -16.3318 0.134784 0 255 255
-6.59719 -16.3297 0.135299 0 255 255
-6.59254 -16.3276 0.135898 0 255 255
-6.58799 -16.3253 0.136579 0 255 255
-6.58356 -16.3231 0.137341 0 255 255
-6.57927 -16.3208 0.138179 0 255 255
-6.57513 -16.3185 0.13908 0 255 255
-6.57108 -16.3162 0.140041 0 255 255
-6.56713 -16.3138 0.141036 0 255 255
-6.56326 -16.3115 0.142045 0 255 255
-6.55946 -16.3092 0.143046 0 255 255
-6.55571 -16.307 0.14402 0 255 255
-6.55199 -16.3049 0.144949 0 255 255
-6.54828 -16.3028 0.145822 0 255 255
-6.5446 -16.3008 0.146622 0 255 255
-6.54034 -16.2987 0.147464 0 255 255
-6.53581 -16.2966 0.148259 0 255 255
-6.53132 -16.2948 0.148964 0 255 255
-6.52679 -16.293 0.149581 0 255 255
-6.52224 -16.2914 0.150113 0 255 255
-6.51768 -16.29 0.150571 0 255 255
-6.51309 -16.2886 0.150967 0 255 255
-6.50851 -16.2874 0.151312 0 255 255
-6.50388 -16.2862 0.151624 0 255 255
-6.49923 -16.2851 0.151917 0 255 255
-6.49458 -16.284 0.152207 0 255 255
-6.48993 -16.2829 0.15251 0 255 255
-6.48531 -16.2818 0.152841 0 255 255
-6.4807 -16.2806 0.153222 0 255 255
-6.47612 -16.2794 0.153665 0 255 255
-6.47159 -16.2782 0.154181 0 255 255
-6.46712 -16.2769 0.154777 0 255 255
-6.46273 -16.2755 0.155456 0 255 255
-6.45856 -16.2741 0.156193 0 255 255
-6.45512 -16.2728 0.156876 0 255 255
-6.45171 -16.2715 0.15762 0 255 255
-6.44835 -16.2701 0.158414 0 255 255
-6.44504 -16.2687 0.159241 0 255 255
-6.44178 -16.2673 0.160079 0 255 255
-6.43854 -16.2658 0.160931 0 255 255
-6.43528 -16.2643 0.161789 0 255 255
-6.43207 -16.2628 0.162625 0 255 255
-6.42884 -16.2613 0.163444 0 255 255
-6.42563 -16.2598 0.164225 0 255 255
-6.42238 -16.2583 0.16497 0 255 255
-6.41913 -16.2569 0.165667 0 255 255
-6.41586 -16.2555 0.166312 0 255 255
-6.41258 -16.2541 0.166901 0 255 255
-6.40929 -16.2527 0.167432 0 255 255
-6.406 -16.2514 0.167901 0 255 255
-6.40268 -16.2501 0.168315 0 255 255
-6.39902 -16.2487 0.168707 0 255 255
-6.39493 -16.2473 0.16908 0 255 255
-6.39082 -16.2459 0.169391 0 255 255
-6.38671 -16.2445 0.169645 0 255 255
-6.38258 -16.2431 0.169849 0 255 255
-6.37842 -16.2418 0.169982 0 255 255
-6.37425 -16.2405 0.170071 0 255 255
-6.37004 -16.2392 0.170119 0 255 255
-6.36589 -16.238 0.170128 0 255 255
-6.36173 -16.2367 0.170102 0 255 255
-6.35754 -16.2354 0.17004 0 255 255
-6.35336 -16.2342 0.169946 0 255 255
-6.34917 -16.2329 0.16982 0 255 255
-6.34502 -16.2316 0.169664 0 255 255
-6.34083 -16.2303 0.169473 0 255 255
-6.33665 -16.229 0.16925 0 255 255
-6.33246 -16.2277 0.168991 0 255 255
-6.32824 -16.2263 0.168694 0 255 255
-6.32407 -16.225 0.168363 0 255 255
-6.31988 -16.2237 0.167992 0 255 255
-6.31566 -16.2224 0.167577 0 255 255
-6.31142 -16.221 0.167121 0 255 255
-6.30717 -16.2197 0.166622 0 255 255
-6.3029 -16.2184 0.16608 0 255 255
-6.29906 -16.2172 0.165556 0 255 255
-6.29527 -16.216 0.165005 0 255 255
-6.29176 -16.2149 0.164448 0 255 255
-6.28823 -16.2138 0.16386 0 255 255
-6.28468 -16.2127 0.16324 0 255 255
-6.28113 -16.2117 0.162594 0 255 255
-6.27754 -16.2106 0.161915 0 255 255
-6.27394 -16.2094 0.16121 0 255 255
-6.27031 -16.2083 0.16048 0 255 255
-6.26666 -16.2072 0.159728 0 255 255
-6.26301 -16.206 0.158959 0 255 255
-6.25931 -16.2048 0.158168 0 255 255
-6.25559 -16.2037 0.15736 0 255 255
-6.25185 -16.2024 0.156537 0 255 255
-6.2481 -16.2012 0.155699 0 255 255
-6.24432 -16.2 0.154849 0 255 255
-6.24055 -16.1987 0.153992 0 255 255
-6.23674 -16.1975 0.153119 0 255 255
-6.23292 -16.1962 0.152237 0 255 255
-6.22908 -16.1949 0.151348 0 255 255
-6.22524 -16.1936 0.150456 0 255 255
-6.2214 -16.1923 0.149557 0 255 255
-6.21758 -16.191 0.148668 0 255 255
-6.21372 -16.1897 0.147779 0 255 255
-6.2095 -16.1883 0.146823 0 255 255
-6.2052 -16.1868 0.145867 0 255 255
-6.20087 -16.1853 0.144928 0 255 255
-6.19651 -16.1838 0.144013 0 255 255
-6.19208 -16.1823 0.143115 0 255 255
-6.18757 -16.1807 0.142243 0 255 255
-6.18299 -16.1791 0.141404 0 255 255
-6.17835 -16.1775 0.140607 0 255 255
-6.17357 -16.1759 0.139845 0 255 255
-6.16867 -16.1742 0.139127 0 255 255
-6.16367 -16.1725 0.138459 0 255 255
-6.15866 -16.1709 0.137855 0 255 255
-6.1536 -16.1692 0.13731 0 255 255
-6.14853 -16.1675 0.136823 0 255 255
-6.14338 -16.1659 0.136383 0 255 255
-6.13821 -16.1642 0.135993 0 255 255
-6.13295 -16.1626 0.135644 0 255 255
-6.12765 -16.1609 0.135339 0 255 255
-6.12249 -16.1593 0.135088 0 255 255
-6.11708 -16.1576 0.134894 0 255 255
-6.11163 -16.1559 0.134762 0 255 255
-6.10613 -16.1541 0.134704 0 255 255
-6.10058 -16.1524 0.134727 0 255 255
-6.09499 -16.1507 0.134836 0 255 255
-6.08941 -16.149 0.135028 0 255 255
-6.08378 -16.1474 0.135302 0 255 255
-6.07814 -16.1458 0.135656 0 255 255
-6.07251 -16.1443 0.136089 0 255 255
-6.06689 -16.1428 0.136602 0 255 255
-6.0613 -16.1414 0.137198 0 255 255
-6.05576 -16.1401 0.13788 0 255 255
-6.05028 -16.1389 0.138651 0 255 255
-6.04487 -16.1377 0.139508 0 255 255
-6.03959 -16.1366 0.140439 0 255 255
-6.0344 -16.1355 0.141438 0 255 255
-6.02928 -16.1345 0.142499 0 255 255
-6.02427 -16.1335 0.143596 0 255 255
-6.01937 -16.1326 0.14471 0 255 255
-6.01459 -16.1316 0.145833 0 255 255
-6.00993 -16.1306 0.146929 0 255 255
-6.0054 -16.1296 0.147971 0 255 255
-6.00094 -16.1285 0.148955 0 255 255
-5.99659 -16.1274 0.14986 0 255 255
-5.99233 -16.1262 0.150678 0 255 255
-5.98891 -16.1251 0.151272 0 255 255
-5.98557 -16.124 0.151789 0 255 255
-5.98227 -16.1229 0.152241 0 255 255
-5.97901 -16.1217 0.15263 0 255 255
-5.9758 -16.1204 0.152966 0 255 255
-5.97262 -16.1192 0.153256 0 255 255
-5.96948 -16.1179 0.153511 0 255 255
-5.96635 -16.1166 0.153743 0 255 255
-5.96324 -16.1153 0.153962 0 255 255
-5.96014 -16.114 0.15418 0 255 255
-5.95707 -16.1128 0.154407 0 255 255
-5.95398 -16.1115 0.154656 0 255 255
-5.9509 -16.1103 0.154935 0 255 255
-5.94783 -16.1092 0.155257 0 255 255
-5.94475 -16.1081 0.155628 0 255 255
-5.941 -16.1068 0.156149 0 255 255
-5.93723 -16.1056 0.156764 0 255 255
-5.9335 -16.1044 0.157443 0 255 255
-5.92975 -16.1033 0.158189 0 255 255
-5.92601 -16.1022 0.158988 0 255 255
-5.92229 -16.1011 0.159829 0 255 255
-5.91858 -16.1001 0.160701 0 255 255
-5.9149 -16.0991 0.161591 0 255 255
-5.91126 -16.0981 0.162479 0 255 255
-5.90762 -16.0972 0.163365 0 255 255
-5.90402 -16.0962 0.16423 0 255 255
-5.90044 -16.0951 0.165063 0 255 255
-5.89692 -16.0941 0.165849 0 255 255
-5.89342 -16.093 0.166589 0 255 255
-5.88995 -16.0919 0.16727 0 255 255
-5.88651 -16.0908 0.167887 0 255 255
-5.88309 -16.0896 0.16844 0 255 255
-5.87973 -16.0883 0.168919 0 255 255
-5.8764 -16.087 0.169327 0 255 255
-5.87311 -16.0856 0.169657 0 255 255
-5.86983 -16.0842 0.169922 0 255 255
-5.86657 -16.0827 0.170121 0 255 255
-5.86332 -16.0812 0.170259 0 255 255
-5.86008 -16.0796 0.170341 0 255 255
-5.85687 -16.078 0.170374 0 255 255
-5.85366 -16.0764 0.170365 0 255 255
-5.85043 -16.0748 0.170321 0 255 255
-5.84721 -16.0731 0.170249 0 255 255
-5.844 -16.0715 0.170154 0 255 255
-5.84076 -16.0698 0.170043 0 255 255
-5.83753 -16.0681 0.16992 0 255 255
-5.83429 -16.0664 0.169789 0 255 255
-5.83108 -16.0647 0.169655 0 255 255
-5.82784 -16.063 0.169518 0 255 255
-5.8246 -16.0613 0.169379 0 255 255
-5.82134 -16.0596 0.169238 0 255 255
-5.8181 -16.0579 0.169094 0 255 255
-5.81485 -16.0562 0.168943 0 255 255
-5.81159 -16.0545 0.168783 0 255 255
-5.80832 -16.0528 0.168608 0 255 255
-5.80551 -16.0513 0.168441 0 255 255
-5.80284 -16.0499 0.16826 0 255 255
-5.80015 -16.0485 0.168056 0 255 255
-5.79746 -16.0471 0.167827 0 255 255
-5.79476 -16.0457 0.167569 0 255 255
-5.79206 -16.0442 0.167283 0 255 255
-5.78934 -16.0428 0.166965 0 255 255
-5.7866 -16.0413 0.166617 0 255 255
-5.78385 -16.0398 0.166239 0 255 255
-5.78111 -16.0383 0.165836 0 255 255
-5.77833 -16.0367 0.165404 0 255 255
-5.77554 -16.0351 0.164948 0 255 255
-5.77274 -16.0335 0.164471 0 255 255
-5.76993 -16.0319 0.163977 0 255 255
-5.76708 -16.0303 0.163461 0 255 255
-5.76424 -16.0286 0.162937 0 255 255
-5.76139 -16.0269 0.1624 0 255 255
-5.75851 -16.0252 0.161848 0 255 255
-5.75564 -16.0234 0.161289 0 255 255
-5.75274 -16.0216 0.160718 0 255 255
-5.74984 -16.0198 0.160137 0 255 255
-5.7463 -16.0175 0.159424 0 255 255
-5.74336 -16.0156 0.158818 0 255 255
-5.74042 -16.0137 0.1582 0 255 255
-5.73747 -16.0117 0.157569 0 255 255
-5.73453 -16.0097 0.156923 0 255 255
-5.73158 -16.0076 0.156262 0 255 255
-5.72865 -16.0055 0.155589 0 255 255
-5.7257 -16.0034 0.154895 0 255 255
-5.72274 -16.0011 0.154186 0 255 255
-5.71977 -15.9989 0.153462 0 255 255
-5.71679 -15.9966 0.152728 0 255 255
-5.71379 -15.9942 0.151988 0 255 255
-5.71076 -15.9918 0.151247 0 255 255
-5.70772 -15.9893 0.150511 0 255 255
-5.70465 -15.9868 0.149785 0 255 255
-5.70156 -15.9842 0.149077 0 255 255
-5.69847 -15.9816 0.148395 0 255 255
-5.69535 -15.979 0.147742 0 255 255
-5.6922 -15.9763 0.147118 0 255 255
-5.68902 -15.9736 0.146531 0 255 255
-5.68581 -15.9709 0.145986 0 255 255
-5.6826 -15.9681 0.145494 0 255 255
-5.67933 -15.9653 0.145044 0 255 255
-5.67604 -15.9625 0.144642 0 255 255
-5.6727 -15.9597 0.144285 0 255 255
-5.6688 -15.9563 0.143927 0 255 255
-5.6649 -15.953 0.143624 0 255 255
-5.66095 -15.9496 0.143373 0 255 255
-5.65698 -15.9462 0.143179 0 255 255
-5.65299 -15.9427 0.143045 0 255 255
-5.64901 -15.9393 0.142977 0 255 255
-5.64511 -15.9359 0.142984 0 255 255
-5.6414 -15.9326 0.143063 0 255 255
-5.63788 -15.9295 0.143213 0 255 255
-5.6344 -15.9263 0.143437 0 255 255
-5.63096 -15.9231 0.143737 0 255 255
-5.62756 -15.9198 0.144114 0 255 255
-5.62423 -15.9165 0.144566 0 255 255
-5.62099 -15.9132 0.145087 0 255 255
-5.6178 -15.9098 0.145679 0 255 255
-5.61472 -15.9064 0.146344 0 255 255
-5.61176 -15.9029 0.147059 0 255 255
-5.60886 -15.8994 0.147827 0 255 255
-5.60607 -15.8958 0.148624 0 255 255
-5.60338 -15.8923 0.149442 0 255 255
-5.60077 -15.8888 0.150268 0 255 255
-5.59823 -15.8853 0.151089 0 255 255
-5.59578 -15.8818 0.151886 0 255 255
-5.59335 -15.8784 0.15266 0 255 255
-5.59097 -15.875 0.153397 0 255 255
-5.58861 -15.8717 0.154092 0 255 255
-5.58626 -15.8685 0.15474 0 255 255
-5.58393 -15.8654 0.155335 0 255 255
-5.58157 -15.8624 0.155886 0 255 255
-5.57921 -15.8595 0.156391 0 255 255
-5.57682 -15.8566 0.156856 0 255 255
-5.57441 -15.8539 0.157288 0 255 255
-5.57144 -15.8506 0.157785 0 255 255
-5.56845 -15.8474 0.158261 0 255 255
-5.56547 -15.8443 0.158724 0 255 255
-5.56246 -15.8412 0.159187 0 255 255
-5.55943 -15.8381 0.159692 0 255 255
-5.55643 -15.8351 0.160212 0 255 255
-5.55345 -15.832 0.160755 0 255 255
-5.55054 -15.829 0.161324 0 255 255
-5.54766 -15.826 0.161931 0 255 255
-5.54485 -15.8229 0.162577 0 255 255
-5.54211 -15.8198 0.163265 0 255 255
-5.53945 -15.8167 0.163998 0 255 255
-5.53689 -15.8136 0.164771 0 255 255
-5.5344 -15.8104 0.165592 0 255 255
-5.53198 -15.8072 0.166452 0 255 255
-5.52963 -15.8039 0.167347 0 255 255
-5.52734 -15.8007 0.16827 0 255 255
-5.5251 -15.7973 0.169214 0 255 255
-5.52291 -15.794 0.17017 0 255 255
-5.52078 -15.7907 0.171117 0 255 255
-5.51884 -15.7877 0.171986 0 255 255
-5.51711 -15.7849 0.172748 0 255 255
-5.51539 -15.7822 0.17349 0 255 255
-5.51368 -15.7794 0.174204 0 255 255
-5.51197 -15.7767 0.174886 0 255 255
-5.50992 -15.7734 0.175666 0 255 255
-5.50787 -15.7701 0.176399 0 255 255
-5.50591 -15.7669 0.177049 0 255 255
-5.50396 -15.7639 0.177642 0 255 255
-5.50197 -15.7607 0.178196 0 255 255
-5.49995 -15.7576 0.178702 0 255 255
-5.49793 -15.7545 0.179155 0 255 255
-5.49593 -15.7515 0.179554 0 255 255
-5.49396 -15.7485 0.1799 0 255 255
-5.49202 -15.7456 0.180198 0 255 255
-5.4901 -15.7427 0.180452 0 255 255
-5.4882 -15.7399 0.180665 0 255 255
-5.48634 -15.7371 0.180839 0 255 255
-5.48449 -15.7344 0.18098 0 255 255
-5.48268 -15.7317 0.181088 0 255 255
-5.48087 -15.729 0.181168 0 255 255
-5.47907 -15.7263 0.181221 0 255 255
-5.47727 -15.7236 0.181249 0 255 255
-5.47547 -15.721 0.181252 0 255 255
-5.47366 -15.7183 0.181231 0 255 255
-5.47149 -15.715 0.181162 0 255 255
-5.46931 -15.7118 0.181064 0 255 255
-5.46712 -15.7086 0.180939 0 255 255
-5.46493 -15.7053 0.180786 0 255 255
-5.46274 -15.7021 0.180605 0 255 255
