ply
format ascii 1.0
element vertex 1326
property float x
property float y
property float z
property uchar red
property uchar green
property uchar blue
element face 0
property list uchar int vertex_indices
end_header
-4.84615 -15.6279 -0.0130883 0 0 255
-4.62048 -15.5928 -0.0389385 255 0 0
-4.7439 -15.4641 0.111552 0 255 0
-4.84894 -15.6319 -0.0119679 0 0 255
-4.61635 -15.5956 -0.0386354 255 0 0
-4.74352 -15.463 0.116416 0 255 0
-4.85174 -15.6359 -0.0108475 0 0 255
-4.61223 -15.5984 -0.0383324 255 0 0
-4.74313 -15.4619 0.121279 0 255 0
-4.85454 -15.6398 -0.00972714 0 0 255
-4.6081 -15.6012 -0.0380293 255 0 0
-4.74274 -15.4608 0.126143 0 255 0
-4.85733 -15.6438 -0.00860676 0 0 255
-4.60397 -15.604 -0.0377262 255 0 0
-4.74236 -15.4597 0.131006 0 255 0
-4.86013 -15.6478 -0.00748638 0 0 255
-4.59985 -15.6068 -0.0374231 255 0 0
-4.74197 -15.4586 0.135869 0 255 0
-4.86292 -15.6518 -0.006366 0 0 255
-4.59572 -15.6096 -0.03712 255 0 0
-4.74158 -15.4575 0.140733 0 255 0
-4.86572 -15.6558 -0.00524562 0 0 255
-4.59159 -15.6124 -0.0368169 255 0 0
-4.7412 -15.4564 0.145596 0 255 0
-4.86852 -15.6598 -0.00412524 0 0 255
-4.58746 -15.6152 -0.0365138 255 0 0
-4.74081 -15.4553 0.15046 0 255 0
-4.87131 -15.6638 -0.00300486 0 0 255
-4.58334 -15.618 -0.0362107 255 0 0
-4.74042 -15.4542 0.155323 0 255 0
-4.87411 -15.6678 -0.00188447 0 0 255
-4.57921 -15.6208 -0.0359076 255 0 0
-4.74004 -15.4531 0.160187 0 255 0
-4.8769 -15.6718 -0.000764094 0 0 255
-4.57508 -15.6236 -0.0356046 255 0 0
-4.73965 -15.452 0.16505 0 255 0
-4.8797 -15.6758 0.000356287 0 0 255
-4.57096 -15.6265 -0.0353015 255 0 0
-4.73926 -15.4509 0.169913 0 255 0
-4.8825 -15.6798 0.00147667 0 0 255
-4.56683 -15.6293 -0.0349984 255 0 0
-4.73887 -15.4498 0.174777 0 255 0
-4.88529 -15.6837 0.00259705 0 0 255
-4.5627 -15.6321 -0.0346953 255 0 0
-4.73849 -15.4487 0.17964 0 255 0
-4.88809 -15.6877 0.00371743 0 0 255
-4.55858 -15.6349 -0.0343922 255 0 0
-4.7381 -15.4476 0.184504 0 255 0
-4.89088 -15.6917 0.00483781 0 0 255
-4.55445 -15.6377 -0.0340891 255 0 0
-4.73771 -15.4466 0.189367 0 255 0
-4.89368 -15.6957 0.00595819 0 0 255
-4.55032 -15.6405 -0.033786 255 0 0
-4.73733 -15.4455 0.194231 0 255 0
-4.89648 -15.6997 0.00707857 0 0 255
-4.54619 -15.6433 -0.0334829 255 0 0
-4.73694 -15.4444 0.199094 0 255 0
-4.89927 -15.7037 0.00819896 0 0 255
-4.54207 -15.6461 -0.0331798 255 0 0
-4.73655 -15.4433 0.203957 0 255 0
-4.90207 -15.7077 0.00931934 0 0 255
-4.53794 -15.6489 -0.0328768 255 0 0
-4.73617 -15.4422 0.208821 0 255 0
-4.90486 -15.7117 0.0104397 0 0 255
-4.53381 -15.6517 -0.0325737 255 0 0
-4.73578 -15.4411 0.213684 0 255 0
-4.90766 -15.7157 0.0115601 0 0 255
-4.52969 -15.6545 -0.0322706 255 0 0
-4.73539 -15.44 0.218548 0 255 0
-4.91046 -15.7197 0.0126805 0 0 255
-4.52556 -15.6573 -0.0319675 255 0 0
-4.73501 -15.4389 0.223411 0 255 0
-4.91325 -15.7237 0.0138009 0 0 255
-4.52143 -15.6601 -0.0316644 255 0 0
-4.73462 -15.4378 0.228274 0 255 0
-4.91605 -15.7276 0.0149212 0 0 255
-4.51731 -15.6629 -0.0313613 255 0 0
-4.73423 -15.4367 0.233138 0 255 0
-4.91884 -15.7316 0.0160416 0 0 255
-4.51318 -15.6657 -0.0310582 255 0 0
-4.73384 -15.4356 0.238001 0 255 0
-4.92164 -15.7356 0.017162 0 0 255
-4.50905 -15.6686 -0.0307551 255 0 0
-4.73346 -15.4345 0.242865 0 255 0
-4.92444 -15.7396 0.0182824 0 0 255
-4.50492 -15.6714 -0.030452 255 0 0
-4.73307 -15.4334 0.247728 0 255 0
-4.92723 -15.7436 0.0194028 0 0 255
-4.5008 -15.6742 -0.0301489 255 0 0
-4.73268 -15.4323 0.252592 0 255 0
-4.93003 -15.7476 0.0205231 0 0 255
-4.49667 -15.677 -0.0298459 255 0 0
-4.7323 -15.4312 0.257455 0 255 0
-4.93282 -15.7516 0.0216435 0 0 255
-4.49254 -15.6798 -0.0295428 255 0 0
-4.73191 -15.4301 0.262318 0 255 0
-4.93562 -15.7556 0.0227639 0 0 255
-4.48842 -15.6826 -0.0292397 255 0 0
-4.73152 -15.429 0.267182 0 255 0
-4.93842 -15.7596 0.0238843 0 0 255
-4.48429 -15.6854 -0.0289366 255 0 0
-4.73114 -15.4279 0.272045 0 255 0
-4.94121 -15.7636 0.0250047 0 0 255
-4.48016 -15.6882 -0.0286335 255 0 0
-4.73075 -15.4269 0.276909 0 255 0
-4.94401 -15.7676 0.0261251 0 0 255
-4.47604 -15.691 -0.0283304 255 0 0
-4.73036 -15.4258 0.281772 0 255 0
-4.94681 -15.7715 0.0272454 0 0 255
-4.47191 -15.6938 -0.0280273 255 0 0
-4.72998 -15.4247 0.286635 0 255 0
-4.9496 -15.7755 0.0283658 0 0 255
-4.46778 -15.6966 -0.0277242 255 0 0
-4.72959 -15.4236 0.291499 0 255 0
-4.9524 -15.7795 0.0294862 0 0 255
-4.46365 -15.6994 -0.0274211 255 0 0
-4.7292 -15.4225 0.296362 0 255 0
-4.95519 -15.7835 0.0306066 0 0 255
-4.45953 -15.7022 -0.0271181 255 0 0
-4.72881 -15.4214 0.301226 0 255 0
-4.95799 -15.7875 0.031727 0 0 255
-4.4554 -15.705 -0.026815 255 0 0
-4.72843 -15.4203 0.306089 0 255 0
-4.96078 -15.7915 0.0328473 0 0 255
-4.45127 -15.7078 -0.0265119 255 0 0
-4.72804 -15.4192 0.310953 0 255 0
-4.96358 -15.7955 0.0339677 0 0 255
-4.44715 -15.7106 -0.0262088 255 0 0
-4.72765 -15.4181 0.315816 0 255 0
-4.96638 -15.7995 0.0350881 0 0 255
-4.44302 -15.7135 -0.0259057 255 0 0
-4.72727 -15.417 0.320679 0 255 0
-4.96917 -15.8035 0.0362085 0 0 255
-4.43889 -15.7163 -0.0256026 255 0 0
-4.72688 -15.4159 0.325543 0 255 0
-4.97197 -15.8075 0.0373289 0 0 255
-4.43476 -15.7191 -0.0252995 255 0 0
-4.72649 -15.4148 0.330406 0 255 0
-4.97477 -15.8115 0.0384492 0 0 255
-4.43064 -15.7219 -0.0249964 255 0 0
-4.72611 -15.4137 0.33527 0 255 0
-4.97756 -15.8154 0.0395696 0 0 255
-4.42651 -15.7247 -0.0246933 255 0 0
-4.72572 -15.4126 0.340133 0 255 0
-4.98036 -15.8194 0.04069 0 0 255
-4.42238 -15.7275 -0.0243903 255 0 0
-4.72533 -15.4115 0.344997 0 255 0
-4.98315 -15.8234 0.0418104 0 0 255
-4.41826 -15.7303 -0.0240872 255 0 0
-4.72495 -15.4104 0.34986 0 255 0
-4.98595 -15.8274 0.0429308 0 0 255
-4.41413 -15.7331 -0.0237841 255 0 0
-4.72456 -15.4093 0.354723 0 255 0
-4.98875 -15.8314 0.0440512 0 0 255
-4.41 -15.7359 -0.023481 255 0 0
-4.72417 -15.4083 0.359587 0 255 0
-4.99154 -15.8354 0.0451715 0 0 255
-4.40588 -15.7387 -0.0231779 255 0 0
-4.72378 -15.4072 0.36445 0 255 0
-4.99434 -15.8394 0.0462919 0 0 255
-4.40175 -15.7415 -0.0228748 255 0 0
-4.7234 -15.4061 0.369314 0 255 0
-4.99713 -15.8434 0.0474123 0 0 255
-4.39762 -15.7443 -0.0225717 255 0 0
-4.72301 -15.405 0.374177 0 255 0
-4.99993 -15.8474 0.0485327 0 0 255
-4.39349 -15.7471 -0.0222686 255 0 0
-4.72262 -15.4039 0.37904 0 255 0
-5.00273 -15.8514 0.0496531 0 0 255
-4.38937 -15.7499 -0.0219655 255 0 0
-4.72224 -15.4028 0.383904 0 255 0
-5.00552 -15.8554 0.0507734 0 0 255
-4.38524 -15.7527 -0.0216624 255 0 0
-4.72185 -15.4017 0.388767 0 255 0
-5.00832 -15.8593 0.0518938 0 0 255
-4.38111 -15.7555 -0.0213594 255 0 0
-4.72146 -15.4006 0.393631 0 255 0
-5.01111 -15.8633 0.0530142 0 0 255
-4.37699 -15.7584 -0.0210563 255 0 0
-4.72108 -15.3995 0.398494 0 255 0
-5.01391 -15.8673 0.0541346 0 0 255
-4.37286 -15.7612 -0.0207532 255 0 0
-4.72069 -15.3984 0.403358 0 255 0
-5.01671 -15.8713 0.055255 0 0 255
-4.36873 -15.764 -0.0204501 255 0 0
-4.7203 -15.3973 0.408221 0 255 0
-5.0195 -15.8753 0.0563753 0 0 255
-4.36461 -15.7668 -0.020147 255 0 0
-4.71992 -15.3962 0.413084 0 255 0
-5.0223 -15.8793 0.0574957 0 0 255
-4.36048 -15.7696 -0.0198439 255 0 0
-4.71953 -15.3951 0.417948 0 255 0
-5.02509 -15.8833 0.0586161 0 0 255
-4.35635 -15.7724 -0.0195408 255 0 0
-4.71914 -15.394 0.422811 0 255 0
-5.02789 -15.8873 0.0597365 0 0 255
-4.35222 -15.7752 -0.0192377 255 0 0
-4.71875 -15.3929 0.427675 0 255 0
-5.03069 -15.8913 0.0608569 0 0 255
-4.3481 -15.778 -0.0189346 255 0 0
-4.71837 -15.3918 0.432538 0 255 0
-5.03348 -15.8953 0.0619773 0 0 255
-4.19613 -14.7849 -0.0574511 255 0 0
-4.19613 -14.7849 -0.0574511 0 255 0
-4.19613 -14.7849 -0.0574511 0 0 255
-4.19275 -14.7886 -0.0573738 255 0 0
-4.1954 -14.7841 -0.0525658 0 255 0
-4.19975 -14.7882 -0.0563888 0 0 255
-4.18938 -14.7923 -0.0572965 255 0 0
-4.19467 -14.7834 -0.0476806 0 255 0
-4.20336 -14.7915 -0.0553266 0 0 255
-4.186 -14.796 -0.0572192 255 0 0
-4.19393 -14.7826 -0.0427954 0 255 0
-4.20697 -14.7948 -0.0542643 0 0 255
-4.18262 -14.7997 -0.0571419 255 0 0
-4.1932 -14.7818 -0.0379101 0 255 0
-4.21059 -14.7981 -0.053202 0 0 255
-4.17925 -14.8033 -0.0570646 255 0 0
-4.19247 -14.781 -0.0330249 0 255 0
-4.2142 -14.8013 -0.0521398 0 0 255
-4.17587 -14.807 -0.0569873 255 0 0
-4.19174 -14.7803 -0.0281396 0 255 0
-4.21781 -14.8046 -0.0510775 0 0 255
-4.17249 -14.8107 -0.0569101 255 0 0
-4.19101 -14.7795 -0.0232544 0 255 0
-4.22143 -14.8079 -0.0500152 0 0 255
-4.16912 -14.8144 -0.0568328 255 0 0
-4.19027 -14.7787 -0.0183692 0 255 0
-4.22504 -14.8112 -0.048953 0 0 255
-4.16574 -14.8181 -0.0567555 255 0 0
-4.18954 -14.7779 -0.0134839 0 255 0
-4.22866 -14.8145 -0.0478907 0 0 255
-4.16236 -14.8218 -0.0566782 255 0 0
-4.18881 -14.7772 -0.00859868 0 255 0
-4.23227 -14.8178 -0.0468284 0 0 255
-4.15899 -14.8255 -0.0566009 255 0 0
-4.18808 -14.7764 -0.00371344 0 255 0
-4.23588 -14.8211 -0.0457662 0 0 255
-4.15561 -14.8291 -0.0565236 255 0 0
-4.18734 -14.7756 0.0011718 0 255 0
-4.2395 -14.8244 -0.0447039 0 0 255
-4.15223 -14.8328 -0.0564463 255 0 0
-4.18661 -14.7749 0.00605704 0 255 0
-4.24311 -14.8277 -0.0436416 0 0 255
-4.14885 -14.8365 -0.056369 255 0 0
-4.18588 -14.7741 0.0109423 0 255 0
-4.24673 -14.8309 -0.0425794 0 0 255
-4.14548 -14.8402 -0.0562917 255 0 0
-4.18515 -14.7733 0.0158275 0 255 0
-4.25034 -14.8342 -0.0415171 0 0 255
-4.1421 -14.8439 -0.0562145 255 0 0
-4.18441 -14.7725 0.0207128 0 255 0
-4.25395 -14.8375 -0.0404548 0 0 255
-4.13872 -14.8476 -0.0561372 255 0 0
-4.18368 -14.7718 0.025598 0 255 0
-4.25757 -14.8408 -0.0393926 0 0 255
-4.13535 -14.8513 -0.0560599 255 0 0
-4.18295 -14.771 0.0304832 0 255 0
-4.26118 -14.8441 -0.0383303 0 0 255
-4.13197 -14.8549 -0.0559826 255 0 0
-4.18222 -14.7702 0.0353685 0 255 0
-4.26479 -14.8474 -0.037268 0 0 255
-4.12859 -14.8586 -0.0559053 255 0 0
-4.18148 -14.7694 0.0402537 0 255 0
-4.26841 -14.8507 -0.0362058 0 0 255
-4.12522 -14.8623 -0.055828 255 0 0
-4.18075 -14.7687 0.045139 0 255 0
-4.27202 -14.854 -0.0351435 0 0 255
-4.12184 -14.866 -0.0557507 255 0 0
-4.18002 -14.7679 0.0500242 0 255 0
-4.27564 -14.8572 -0.0340812 0 0 255
-4.11846 -14.8697 -0.0556734 255 0 0
-4.17929 -14.7671 0.0549094 0 255 0
-4.27925 -14.8605 -0.033019 0 0 255
-4.11509 -14.8734 -0.0555961 255 0 0
-4.17855 -14.7663 0.0597947 0 255 0
-4.28286 -14.8638 -0.0319567 0 0 255
-4.11171 -14.8771 -0.0555188 255 0 0
-4.17782 -14.7656 0.0646799 0 255 0
-4.28648 -14.8671 -0.0308944 0 0 255
-4.10833 -14.8808 -0.0554416 255 0 0
-4.17709 -14.7648 0.0695652 0 255 0
-4.29009 -14.8704 -0.0298322 0 0 255
-4.10495 -14.8844 -0.0553643 255 0 0
-4.17636 -14.764 0.0744504 0 255 0
-4.29371 -14.8737 -0.0287699 0 0 255
-4.10158 -14.8881 -0.055287 255 0 0
-4.17562 -14.7633 0.0793356 0 255 0
-4.29732 -14.877 -0.0277076 0 0 255
-4.0982 -14.8918 -0.0552097 255 0 0
-4.17489 -14.7625 0.0842209 0 255 0
-4.30093 -14.8803 -0.0266454 0 0 255
-4.09482 -14.8955 -0.0551324 255 0 0
-4.17416 -14.7617 0.0891061 0 255 0
-4.30455 -14.8835 -0.0255831 0 0 255
-4.09145 -14.8992 -0.0550551 255 0 0
-4.17343 -14.7609 0.0939914 0 255 0
-4.30816 -14.8868 -0.0245208 0 0 255
-4.08807 -14.9029 -0.0549778 255 0 0
-4.1727 -14.7602 0.0988766 0 255 0
-4.31177 -14.8901 -0.0234586 0 0 255
-4.08469 -14.9066 -0.0549005 255 0 0
-4.17196 -14.7594 0.103762 0 255 0
-4.31539 -14.8934 -0.0223963 0 0 255
-4.08132 -14.9102 -0.0548232 255 0 0
-4.17123 -14.7586 0.108647 0 255 0
-4.319 -14.8967 -0.021334 0 0 255
-4.07794 -14.9139 -0.0547459 255 0 0
-4.1705 -14.7578 0.113532 0 255 0
-4.32262 -14.9 -0.0202718 0 0 255
-4.07456 -14.9176 -0.0546687 255 0 0
-4.16977 -14.7571 0.118418 0 255 0
-4.32623 -14.9033 -0.0192095 0 0 255
-4.07118 -14.9213 -0.0545914 255 0 0
-4.16903 -14.7563 0.123303 0 255 0
-4.32984 -14.9066 -0.0181473 0 0 255
-4.06781 -14.925 -0.0545141 255 0 0
-4.1683 -14.7555 0.128188 0 255 0
-4.33346 -14.9099 -0.017085 0 0 255
-4.06443 -14.9287 -0.0544368 255 0 0
-4.16757 -14.7547 0.133073 0 255 0
-4.33707 -14.9131 -0.0160227 0 0 255
-4.06105 -14.9324 -0.0543595 255 0 0
-4.16684 -14.754 0.137959 0 255 0
-4.34069 -14.9164 -0.0149605 0 0 255
-4.05768 -14.9361 -0.0542822 255 0 0
-4.1661 -14.7532 0.142844 0 255 0
-4.3443 -14.9197 -0.0138982 0 0 255
-4.0543 -14.9397 -0.0542049 255 0 0
-4.16537 -14.7524 0.147729 0 255 0
-4.34791 -14.923 -0.0128359 0 0 255
-4.05092 -14.9434 -0.0541276 255 0 0
-4.16464 -14.7517 0.152614 0 255 0
-4.35153 -14.9263 -0.0117737 0 0 255
-4.04755 -14.9471 -0.0540503 255 0 0
-4.16391 -14.7509 0.157499 0 255 0
-4.35514 -14.9296 -0.0107114 0 0 255
-4.04417 -14.9508 -0.053973 255 0 0
-4.16317 -14.7501 0.162385 0 255 0
-4.35875 -14.9329 -0.00964912 0 0 255
-4.04079 -14.9545 -0.0538958 255 0 0
-4.16244 -14.7493 0.16727 0 255 0
-4.36237 -14.9362 -0.00858686 0 0 255
-4.03742 -14.9582 -0.0538185 255 0 0
-4.16171 -14.7486 0.172155 0 255 0
-4.36598 -14.9394 -0.00752459 0 0 255
-4.03404 -14.9619 -0.0537412 255 0 0
-4.16098 -14.7478 0.17704 0 255 0
-4.3696 -14.9427 -0.00646232 0 0 255
-4.03066 -14.9655 -0.0536639 255 0 0
-4.16024 -14.747 0.181926 0 255 0
-4.37321 -14.946 -0.00540006 0 0 255
-4.02728 -14.9692 -0.0535866 255 0 0
-4.15951 -14.7462 0.186811 0 255 0
-4.37682 -14.9493 -0.00433779 0 0 255
-4.02391 -14.9729 -0.0535093 255 0 0
-4.15878 -14.7455 0.191696 0 255 0
-4.38044 -14.9526 -0.00327553 0 0 255
-4.02053 -14.9766 -0.053432 255 0 0
-4.15805 -14.7447 0.196581 0 255 0
-4.38405 -14.9559 -0.00221326 0 0 255
-4.01715 -14.9803 -0.0533547 255 0 0
-4.15732 -14.7439 0.201467 0 255 0
-4.38767 -14.9592 -0.001151 0 0 255
-4.01378 -14.984 -0.0532774 255 0 0
-4.15658 -14.7431 0.206352 0 255 0
-4.39128 -14.9625 -8.87293e-05 0 0 255
-4.0104 -14.9877 -0.0532001 255 0 0
-4.15585 -14.7424 0.211237 0 255 0
-4.39489 -14.9658 0.000973537 0 0 255
-4.00702 -14.9913 -0.0531229 255 0 0
-4.15512 -14.7416 0.216122 0 255 0
-4.39851 -14.969 0.0020358 0 0 255
-4.00365 -14.995 -0.0530456 255 0 0
-4.15439 -14.7408 0.221008 0 255 0
-4.40212 -14.9723 0.00309807 0 0 255
-4.00027 -14.9987 -0.0529683 255 0 0
-4.15365 -14.7401 0.225893 0 255 0
-4.40573 -14.9756 0.00416033 0 0 255
-3.99689 -15.0024 -0.052891 255 0 0
-4.15292 -14.7393 0.230778 0 255 0
-4.40935 -14.9789 0.0052226 0 0 255
-3.99352 -15.0061 -0.0528137 255 0 0
-4.15219 -14.7385 0.235663 0 255 0
-4.41296 -14.9822 0.00628487 0 0 255
-3.99014 -15.0098 -0.0527364 255 0 0
-4.15146 -14.7377 0.240549 0 255 0
-4.41658 -14.9855 0.00734713 0 0 255
-3.98676 -15.0135 -0.0526591 255 0 0
-4.15072 -14.737 0.245434 0 255 0
-4.42019 -14.9888 0.0084094 0 0 255
-3.98338 -15.0172 -0.0525818 255 0 0
-4.14999 -14.7362 0.250319 0 255 0
-4.4238 -14.9921 0.00947166 0 0 255
-3.98001 -15.0208 -0.0525045 255 0 0
-4.14926 -14.7354 0.255204 0 255 0
-4.42742 -14.9953 0.0105339 0 0 255
-3.97663 -15.0245 -0.0524273 255 0 0
-4.14853 -14.7346 0.26009 0 255 0
-4.43103 -14.9986 0.0115962 0 0 255
-3.97325 -15.0282 -0.05235 255 0 0
-4.14779 -14.7339 0.264975 0 255 0
-4.43465 -15.0019 0.0126585 0 0 255
-3.96988 -15.0319 -0.0522727 255 0 0
-4.14706 -14.7331 0.26986 0 255 0
-4.43826 -15.0052 0.0137207 0 0 255
-3.9665 -15.0356 -0.0521954 255 0 0
-4.14633 -14.7323 0.274745 0 255 0
-4.44187 -15.0085 0.014783 0 0 255
-3.96312 -15.0393 -0.0521181 255 0 0
-4.1456 -14.7315 0.279631 0 255 0
-4.44549 -15.0118 0.0158453 0 0 255
-3.95975 -15.043 -0.0520408 255 0 0
-4.14487 -14.7308 0.284516 0 255 0
-4.4491 -15.0151 0.0169075 0 0 255
-3.95637 -15.0466 -0.0519635 255 0 0
-4.14413 -14.73 0.289401 0 255 0
-4.45271 -15.0184 0.0179698 0 0 255
-3.95299 -15.0503 -0.0518862 255 0 0
-4.1434 -14.7292 0.294286 0 255 0
-4.45633 -15.0216 0.0190321 0 0 255
-3.94962 -15.054 -0.0518089 255 0 0
-4.14267 -14.7285 0.299171 0 255 0
-4.45994 -15.0249 0.0200943 0 0 255
-3.94624 -15.0577 -0.0517316 255 0 0
-4.14194 -14.7277 0.304057 0 255 0
-4.46356 -15.0282 0.0211566 0 0 255
-3.94286 -15.0614 -0.0516544 255 0 0
-4.1412 -14.7269 0.308942 0 255 0
-4.46717 -15.0315 0.0222189 0 0 255
-3.93948 -15.0651 -0.0515771 255 0 0
-4.14047 -14.7261 0.313827 0 255 0
-4.47078 -15.0348 0.0232811 0 0 255
-3.93611 -15.0688 -0.0514998 255 0 0
-4.13974 -14.7254 0.318712 0 255 0
-4.4744 -15.0381 0.0243434 0 0 255
-3.93273 -15.0725 -0.0514225 255 0 0
-4.13901 -14.7246 0.323598 0 255 0
-4.47801 -15.0414 0.0254057 0 0 255
-3.92935 -15.0761 -0.0513452 255 0 0
-4.13827 -14.7238 0.328483 0 255 0
-4.48163 -15.0447 0.0264679 0 0 255
-3.92598 -15.0798 -0.0512679 255 0 0
-4.13754 -14.723 0.333368 0 255 0
-4.48524 -15.048 0.0275302 0 0 255
-3.9226 -15.0835 -0.0511906 255 0 0
-4.13681 -14.7223 0.338253 0 255 0
-4.48885 -15.0512 0.0285925 0 0 255
-3.91922 -15.0872 -0.0511133 255 0 0
-4.13608 -14.7215 0.343139 0 255 0
-4.49247 -15.0545 0.0296547 0 0 255
-3.91585 -15.0909 -0.051036 255 0 0
-4.13534 -14.7207 0.348024 0 255 0
-4.49608 -15.0578 0.030717 0 0 255
-3.91247 -15.0946 -0.0509587 255 0 0
-4.13461 -14.7199 0.352909 0 255 0
-4.49969 -15.0611 0.0317792 0 0 255
-3.90909 -15.0983 -0.0508815 255 0 0
-4.13388 -14.7192 0.357794 0 255 0
-4.50331 -15.0644 0.0328415 0 0 255
-3.90571 -15.1019 -0.0508042 255 0 0
-4.13315 -14.7184 0.36268 0 255 0
-4.50692 -15.0677 0.0339038 0 0 255
-3.90234 -15.1056 -0.0507269 255 0 0
-4.13241 -14.7176 0.367565 0 255 0
-4.51054 -15.071 0.034966 0 0 255
-3.89896 -15.1093 -0.0506496 255 0 0
-4.13168 -14.7169 0.37245 0 255 0
-4.51415 -15.0743 0.0360283 0 0 255
-3.89558 -15.113 -0.0505723 255 0 0
-4.13095 -14.7161 0.377335 0 255 0
-4.51776 -15.0775 0.0370906 0 0 255
-3.89221 -15.1167 -0.050495 255 0 0
-4.13022 -14.7153 0.382221 0 255 0
-4.52138 -15.0808 0.0381528 0 0 255
-3.88883 -15.1204 -0.0504177 255 0 0
-4.12949 -14.7145 0.387106 0 255 0
-4.52499 -15.0841 0.0392151 0 0 255
-3.88545 -15.1241 -0.0503404 255 0 0
-4.12875 -14.7138 0.391991 0 255 0
-4.52861 -15.0874 0.0402774 0 0 255
-3.88208 -15.1277 -0.0502631 255 0 0
-4.12802 -14.713 0.396876 0 255 0
-4.53222 -15.0907 0.0413396 0 0 255
-3.8787 -15.1314 -0.0501858 255 0 0
-4.12729 -14.7122 0.401762 0 255 0
-4.53583 -15.094 0.0424019 0 0 255
-3.87532 -15.1351 -0.0501086 255 0 0
-4.12656 -14.7114 0.406647 0 255 0
-4.53945 -15.0973 0.0434642 0 0 255
-3.87195 -15.1388 -0.0500313 255 0 0
-4.12582 -14.7107 0.411532 0 255 0
-4.54306 -15.1006 0.0445264 0 0 255
-3.86857 -15.1425 -0.049954 255 0 0
-4.12509 -14.7099 0.416417 0 255 0
-4.54667 -15.1039 0.0455887 0 0 255
-3.86519 -15.1462 -0.0498767 255 0 0
-4.12436 -14.7091 0.421302 0 255 0
-4.55029 -15.1071 0.046651 0 0 255
-3.86181 -15.1499 -0.0497994 255 0 0
-4.12363 -14.7083 0.426188 0 255 0
-4.5539 -15.1104 0.0477132 0 0 255
-3.42903 -14.1879 -0.0228627 255 0 0
-3.42903 -14.1879 -0.0228627 0 255 0
-3.42903 -14.1879 -0.0228627 0 0 255
-3.42694 -14.1924 -0.0227894 255 0 0
-3.42818 -14.1874 -0.0179573 0 255 0
-3.43349 -14.1899 -0.0218974 0 0 255
-3.42485 -14.197 -0.0227162 255 0 0
-3.42733 -14.187 -0.0130519 0 255 0
-3.43795 -14.192 -0.0209321 0 0 255
-3.42276 -14.2015 -0.0226429 255 0 0
-3.42648 -14.1865 -0.00814648 0 255 0
-3.44241 -14.194 -0.0199669 0 0 255
-3.42067 -14.2061 -0.0225697 255 0 0
-3.42564 -14.186 -0.00324108 0 255 0
-3.44688 -14.1961 -0.0190016 0 0 255
-3.41858 -14.2106 -0.0224964 255 0 0
-3.42479 -14.1856 0.00166432 0 255 0
-3.45134 -14.1981 -0.0180363 0 0 255
-3.41649 -14.2152 -0.0224231 255 0 0
-3.42394 -14.1851 0.00656972 0 255 0
-3.4558 -14.2001 -0.0170711 0 0 255
-3.41439 -14.2197 -0.0223499 255 0 0
-3.4231 -14.1846 0.0114751 0 255 0
-3.46026 -14.2022 -0.0161058 0 0 255
-3.4123 -14.2242 -0.0222766 255 0 0
-3.42225 -14.1842 0.0163805 0 255 0
-3.46473 -14.2042 -0.0151405 0 0 255
-3.41021 -14.2288 -0.0222034 255 0 0
-3.4214 -14.1837 0.0212859 0 255 0
-3.46919 -14.2062 -0.0141752 0 0 255
-3.40812 -14.2333 -0.0221301 255 0 0
-3.42056 -14.1832 0.0261913 0 255 0
-3.47365 -14.2083 -0.01321 0 0 255
-3.40603 -14.2379 -0.0220569 255 0 0
-3.41971 -14.1827 0.0310967 0 255 0
-3.47811 -14.2103 -0.0122447 0 0 255
-3.40394 -14.2424 -0.0219836 255 0 0
-3.41886 -14.1823 0.0360021 0 255 0
-3.48258 -14.2124 -0.0112794 0 0 255
-3.40185 -14.2469 -0.0219104 255 0 0
-3.41802 -14.1818 0.0409075 0 255 0
-3.48704 -14.2144 -0.0103142 0 0 255
-3.39976 -14.2515 -0.0218371 255 0 0
-3.41717 -14.1813 0.0458129 0 255 0
-3.4915 -14.2164 -0.0093489 0 0 255
-3.39767 -14.256 -0.0217639 255 0 0
-3.41632 -14.1809 0.0507183 0 255 0
-3.49596 -14.2185 -0.00838363 0 0 255
-3.39558 -14.2606 -0.0216906 255 0 0
-3.41547 -14.1804 0.0556237 0 255 0
-3.50043 -14.2205 -0.00741836 0 0 255
-3.39349 -14.2651 -0.0216174 255 0 0
-3.41463 -14.1799 0.0605291 0 255 0
-3.50489 -14.2226 -0.00645309 0 0 255
-3.3914 -14.2697 -0.0215441 255 0 0
-3.41378 -14.1795 0.0654345 0 255 0
-3.50935 -14.2246 -0.00548782 0 0 255
-3.38931 -14.2742 -0.0214708 255 0 0
-3.41293 -14.179 0.0703399 0 255 0
-3.51381 -14.2266 -0.00452255 0 0 255
-3.38722 -14.2787 -0.0213976 255 0 0
-3.41209 -14.1785 0.0752453 0 255 0
-3.51828 -14.2287 -0.00355728 0 0 255
-3.38513 -14.2833 -0.0213243 255 0 0
-3.41124 -14.1781 0.0801507 0 255 0
-3.52274 -14.2307 -0.00259201 0 0 255
-3.38304 -14.2878 -0.0212511 255 0 0
-3.41039 -14.1776 0.0850561 0 255 0
-3.5272 -14.2327 -0.00162674 0 0 255
-3.38095 -14.2924 -0.0211778 255 0 0
-3.40955 -14.1771 0.0899615 0 255 0
-3.53166 -14.2348 -0.000661472 0 0 255
-3.37886 -14.2969 -0.0211046 255 0 0
-3.4087 -14.1766 0.0948669 0 255 0
-3.53613 -14.2368 0.000303797 0 0 255
-3.37677 -14.3014 -0.0210313 255 0 0
-3.40785 -14.1762 0.0997723 0 255 0
-3.54059 -14.2389 0.00126907 0 0 255
-3.37468 -14.306 -0.0209581 255 0 0
-3.40701 -14.1757 0.104678 0 255 0
-3.54505 -14.2409 0.00223434 0 0 255
-3.37259 -14.3105 -0.0208848 255 0 0
-3.40616 -14.1752 0.109583 0 255 0
-3.54951 -14.2429 0.00319961 0 0 255
-3.3705 -14.3151 -0.0208116 255 0 0
-3.40531 -14.1748 0.114488 0 255 0
-3.55398 -14.245 0.00416488 0 0 255
-3.36841 -14.3196 -0.0207383 255 0 0
-3.40446 -14.1743 0.119394 0 255 0
-3.55844 -14.247 0.00513014 0 0 255
-3.36632 -14.3242 -0.020665 255 0 0
-3.40362 -14.1738 0.124299 0 255 0
-3.5629 -14.249 0.00609541 0 0 255
-3.36423 -14.3287 -0.0205918 255 0 0
-3.40277 -14.1734 0.129205 0 255 0
-3.56736 -14.2511 0.00706068 0 0 255
-3.36214 -14.3332 -0.0205185 255 0 0
-3.40192 -14.1729 0.13411 0 255 0
-3.57183 -14.2531 0.00802595 0 0 255
-3.36005 -14.3378 -0.0204453 255 0 0
-3.40108 -14.1724 0.139015 0 255 0
-3.57629 -14.2552 0.00899122 0 0 255
-3.35796 -14.3423 -0.020372 255 0 0
-3.40023 -14.172 0.143921 0 255 0
-3.58075 -14.2572 0.00995649 0 0 255
-3.35587 -14.3469 -0.0202988 255 0 0
-3.39938 -14.1715 0.148826 0 255 0
-3.58521 -14.2592 0.0109218 0 0 255
-3.35378 -14.3514 -0.0202255 255 0 0
-3.39854 -14.171 0.153732 0 255 0
-3.58968 -14.2613 0.011887 0 0 255
-3.35169 -14.3559 -0.0201523 255 0 0
-3.39769 -14.1706 0.158637 0 255 0
-3.59414 -14.2633 0.0128523 0 0 255
-3.3496 -14.3605 -0.020079 255 0 0
-3.39684 -14.1701 0.163542 0 255 0
-3.5986 -14.2654 0.0138176 0 0 255
-3.34751 -14.365 -0.0200058 255 0 0
-3.396 -14.1696 0.168448 0 255 0
-3.60306 -14.2674 0.0147828 0 0 255
-3.34542 -14.3696 -0.0199325 255 0 0
-3.39515 -14.1691 0.173353 0 255 0
-3.60753 -14.2694 0.0157481 0 0 255
-3.34333 -14.3741 -0.0198593 255 0 0
-3.3943 -14.1687 0.178259 0 255 0
-3.61199 -14.2715 0.0167134 0 0 255
-3.34124 -14.3786 -0.019786 255 0 0
-3.39346 -14.1682 0.183164 0 255 0
-3.61645 -14.2735 0.0176786 0 0 255
-3.33915 -14.3832 -0.0197127 255 0 0
-3.39261 -14.1677 0.188069 0 255 0
-3.62091 -14.2755 0.0186439 0 0 255
-3.33706 -14.3877 -0.0196395 255 0 0
-3.39176 -14.1673 0.192975 0 255 0
-3.62538 -14.2776 0.0196092 0 0 255
-3.33497 -14.3923 -0.0195662 255 0 0
-3.39091 -14.1668 0.19788 0 255 0
-3.62984 -14.2796 0.0205745 0 0 255
-3.33288 -14.3968 -0.019493 255 0 0
-3.39007 -14.1663 0.202786 0 255 0
-3.6343 -14.2817 0.0215397 0 0 255
-3.33079 -14.4014 -0.0194197 255 0 0
-3.38922 -14.1659 0.207691 0 255 0
-3.63876 -14.2837 0.022505 0 0 255
-3.3287 -14.4059 -0.0193465 255 0 0
-3.38837 -14.1654 0.212596 0 255 0
-3.64323 -14.2857 0.0234703 0 0 255
-3.32661 -14.4104 -0.0192732 255 0 0
-3.38753 -14.1649 0.217502 0 255 0
-3.64769 -14.2878 0.0244355 0 0 255
-3.32452 -14.415 -0.0192 255 0 0
-3.38668 -14.1645 0.222407 0 255 0
-3.65215 -14.2898 0.0254008 0 0 255
-3.32243 -14.4195 -0.0191267 255 0 0
-3.38583 -14.164 0.227313 0 255 0
-3.65662 -14.2918 0.0263661 0 0 255
-3.32034 -14.4241 -0.0190535 255 0 0
-3.38499 -14.1635 0.232218 0 255 0
-3.66108 -14.2939 0.0273313 0 0 255
-3.31825 -14.4286 -0.0189802 255 0 0
-3.38414 -14.1631 0.237123 0 255 0
-3.66554 -14.2959 0.0282966 0 0 255
-3.31616 -14.4331 -0.018907 255 0 0
-3.38329 -14.1626 0.242029 0 255 0
-3.67 -14.298 0.0292619 0 0 255
-3.31407 -14.4377 -0.0188337 255 0 0
-3.38245 -14.1621 0.246934 0 255 0
-3.67447 -14.3 0.0302271 0 0 255
-3.31198 -14.4422 -0.0187604 255 0 0
-3.3816 -14.1616 0.25184 0 255 0
-3.67893 -14.302 0.0311924 0 0 255
-3.30989 -14.4468 -0.0186872 255 0 0
-3.38075 -14.1612 0.256745 0 255 0
-3.68339 -14.3041 0.0321577 0 0 255
-3.3078 -14.4513 -0.0186139 255 0 0
-3.3799 -14.1607 0.26165 0 255 0
-3.68785 -14.3061 0.033123 0 0 255
-3.30571 -14.4559 -0.0185407 255 0 0
-3.37906 -14.1602 0.266556 0 255 0
-3.69232 -14.3082 0.0340882 0 0 255
-3.30362 -14.4604 -0.0184674 255 0 0
-3.37821 -14.1598 0.271461 0 255 0
-3.69678 -14.3102 0.0350535 0 0 255
-3.30153 -14.4649 -0.0183942 255 0 0
-3.37736 -14.1593 0.276367 0 255 0
-3.70124 -14.3122 0.0360188 0 0 255
-3.29944 -14.4695 -0.0183209 255 0 0
-3.37652 -14.1588 0.281272 0 255 0
-3.7057 -14.3143 0.036984 0 0 255
-3.29735 -14.474 -0.0182477 255 0 0
-3.37567 -14.1584 0.286177 0 255 0
-3.71017 -14.3163 0.0379493 0 0 255
-3.29526 -14.4786 -0.0181744 255 0 0
-3.37482 -14.1579 0.291083 0 255 0
-3.71463 -14.3183 0.0389146 0 0 255
-3.29317 -14.4831 -0.0181012 255 0 0
-3.37398 -14.1574 0.295988 0 255 0
-3.71909 -14.3204 0.0398798 0 0 255
-3.29108 -14.4876 -0.0180279 255 0 0
-3.37313 -14.157 0.300894 0 255 0
-3.72355 -14.3224 0.0408451 0 0 255
-3.28899 -14.4922 -0.0179546 255 0 0
-3.37228 -14.1565 0.305799 0 255 0
-3.72802 -14.3245 0.0418104 0 0 255
-3.2869 -14.4967 -0.0178814 255 0 0
-3.37144 -14.156 0.310704 0 255 0
-3.73248 -14.3265 0.0427757 0 0 255
-3.28481 -14.5013 -0.0178081 255 0 0
-3.37059 -14.1555 0.31561 0 255 0
-3.73694 -14.3285 0.0437409 0 0 255
-3.28272 -14.5058 -0.0177349 255 0 0
-3.36974 -14.1551 0.320515 0 255 0
-3.7414 -14.3306 0.0447062 0 0 255
-3.28063 -14.5104 -0.0176616 255 0 0
-3.36889 -14.1546 0.325421 0 255 0
-3.74587 -14.3326 0.0456715 0 0 255
-3.27854 -14.5149 -0.0175884 255 0 0
-3.36805 -14.1541 0.330326 0 255 0
-3.75033 -14.3346 0.0466367 0 0 255
-3.27645 -14.5194 -0.0175151 255 0 0
-3.3672 -14.1537 0.335231 0 255 0
-3.75479 -14.3367 0.047602 0 0 255
-3.27436 -14.524 -0.0174419 255 0 0
-3.36635 -14.1532 0.340137 0 255 0
-3.75925 -14.3387 0.0485673 0 0 255
-3.27227 -14.5285 -0.0173686 255 0 0
-3.36551 -14.1527 0.345042 0 255 0
-3.76372 -14.3408 0.0495325 0 0 255
-3.27018 -14.5331 -0.0172954 255 0 0
-3.36466 -14.1523 0.349948 0 255 0
-3.76818 -14.3428 0.0504978 0 0 255
-3.26809 -14.5376 -0.0172221 255 0 0
-3.36381 -14.1518 0.354853 0 255 0
-3.77264 -14.3448 0.0514631 0 0 255
-3.266 -14.5421 -0.0171489 255 0 0
-3.36297 -14.1513 0.359758 0 255 0
-3.7771 -14.3469 0.0524283 0 0 255
-3.26391 -14.5467 -0.0170756 255 0 0
-3.36212 -14.1509 0.364664 0 255 0
-3.78157 -14.3489 0.0533936 0 0 255
-3.26182 -14.5512 -0.0170023 255 0 0
-3.36127 -14.1504 0.369569 0 255 0
-3.78603 -14.351 0.0543589 0 0 255
-3.25973 -14.5558 -0.0169291 255 0 0
-3.36043 -14.1499 0.374475 0 255 0
-3.79049 -14.353 0.0553242 0 0 255
-3.25764 -14.5603 -0.0168558 255 0 0
-3.35958 -14.1495 0.37938 0 255 0
-3.79495 -14.355 0.0562894 0 0 255
-3.25555 -14.5649 -0.0167826 255 0 0
-3.35873 -14.149 0.384285 0 255 0
-3.79942 -14.3571 0.0572547 0 0 255
-3.25346 -14.5694 -0.0167093 255 0 0
-3.35788 -14.1485 0.389191 0 255 0
-3.80388 -14.3591 0.05822 0 0 255
-3.25137 -14.5739 -0.0166361 255 0 0
-3.35704 -14.148 0.394096 0 255 0
-3.80834 -14.3611 0.0591852 0 0 255
-3.24928 -14.5785 -0.0165628 255 0 0
-3.35619 -14.1476 0.399002 0 255 0
-3.8128 -14.3632 0.0601505 0 0 255
-3.24719 -14.583 -0.0164896 255 0 0
-3.35534 -14.1471 0.403907 0 255 0
-3.81727 -14.3652 0.0611158 0 0 255
-3.2451 -14.5876 -0.0164163 255 0 0
-3.3545 -14.1466 0.408812 0 255 0
-3.82173 -14.3673 0.062081 0 0 255
-3.24301 -14.5921 -0.0163431 255 0 0
-3.35365 -14.1462 0.413718 0 255 0
-3.82619 -14.3693 0.0630463 0 0 255
-3.24092 -14.5966 -0.0162698 255 0 0
-3.3528 -14.1457 0.418623 0 255 0
-3.83065 -14.3713 0.0640116 0 0 255
-3.23883 -14.6012 -0.0161966 255 0 0
-3.35196 -14.1452 0.423528 0 255 0
-3.83512 -14.3734 0.0649768 0 0 255
-3.23674 -14.6057 -0.0161233 255 0 0
-3.35111 -14.1448 0.428434 0 255 0
-3.83958 -14.3754 0.0659421 0 0 255
-3.23465 -14.6103 -0.01605 255 0 0
-3.35026 -14.1443 0.433339 0 255 0
-3.84404 -14.3774 0.0669074 0 0 255
-3.23256 -14.6148 -0.0159768 255 0 0
-3.34942 -14.1438 0.438245 0 255 0
-3.8485 -14.3795 0.0678727 0 0 255
-3.23047 -14.6194 -0.0159035 255 0 0
-3.34857 -14.1434 0.44315 0 255 0
-3.85297 -14.3815 0.0688379 0 0 255
-3.22838 -14.6239 -0.0158303 255 0 0
-3.34772 -14.1429 0.448055 0 255 0
-3.85743 -14.3836 0.0698032 0 0 255
-3.22629 -14.6284 -0.015757 255 0 0
-3.34687 -14.1424 0.452961 0 255 0
-3.86189 -14.3856 0.0707685 0 0 255
-3.2242 -14.633 -0.0156838 255 0 0
-3.34603 -14.142 0.457866 0 255 0
-3.86635 -14.3876 0.0717337 0 0 255
-3.22211 -14.6375 -0.0156105 255 0 0
-3.34518 -14.1415 0.462772 0 255 0
-3.87082 -14.3897 0.072699 0 0 255
-2.52663 -13.7825 -0.0504418 255 0 0
-2.52663 -13.7825 -0.0504418 0 255 0
-2.52663 -13.7825 -0.0504418 0 0 255
-2.52537 -13.7874 -0.0503098 255 0 0
-2.52576 -13.7822 -0.0455314 0 255 0
-2.53139 -13.7838 -0.0495088 0 0 255
-2.52411 -13.7922 -0.0501777 255 0 0
-2.52489 -13.7818 -0.040621 0 255 0
-2.53615 -13.785 -0.0485759 0 0 255
-2.52284 -13.797 -0.0500457 255 0 0
-2.52402 -13.7814 -0.0357106 0 255 0
-2.54091 -13.7862 -0.0476429 0 0 255
-2.52158 -13.8019 -0.0499136 255 0 0
-2.52315 -13.7811 -0.0308001 0 255 0
-2.54567 -13.7874 -0.0467099 0 0 255
-2.52031 -13.8067 -0.0497816 255 0 0
-2.52228 -13.7807 -0.0258897 0 255 0
-2.55043 -13.7886 -0.045777 0 0 255
-2.51905 -13.8115 -0.0496496 255 0 0
-2.52141 -13.7804 -0.0209793 0 255 0
-2.55519 -13.7898 -0.044844 0 0 255
-2.51779 -13.8164 -0.0495175 255 0 0
-2.52054 -13.78 -0.0160689 0 255 0
-2.55994 -13.7911 -0.043911 0 0 255
-2.51652 -13.8212 -0.0493855 255 0 0
-2.51967 -13.7796 -0.0111585 0 255 0
-2.5647 -13.7923 -0.0429781 0 0 255
-2.51526 -13.8261 -0.0492535 255 0 0
-2.5188 -13.7793 -0.0062481 0 255 0
-2.56946 -13.7935 -0.0420451 0 0 255
-2.51399 -13.8309 -0.0491214 255 0 0
-2.51793 -13.7789 -0.00133769 0 255 0
-2.57422 -13.7947 -0.0411122 0 0 255
-2.51273 -13.8357 -0.0489894 255 0 0
-2.51706 -13.7786 0.00357272 0 255 0
-2.57898 -13.7959 -0.0401792 0 0 255
-2.51147 -13.8406 -0.0488574 255 0 0
-2.51619 -13.7782 0.00848313 0 255 0
-2.58374 -13.7972 -0.0392462 0 0 255
-2.5102 -13.8454 -0.0487253 255 0 0
-2.51532 -13.7778 0.0133935 0 255 0
-2.5885 -13.7984 -0.0383133 0 0 255
-2.50894 -13.8502 -0.0485933 255 0 0
-2.51445 -13.7775 0.018304 0 255 0
-2.59326 -13.7996 -0.0373803 0 0 255
-2.50768 -13.8551 -0.0484613 255 0 0
-2.51358 -13.7771 0.0232144 0 255 0
-2.59801 -13.8008 -0.0364473 0 0 255
-2.50641 -13.8599 -0.0483292 255 0 0
-2.51271 -13.7767 0.0281248 0 255 0
-2.60277 -13.802 -0.0355144 0 0 255
-2.50515 -13.8647 -0.0481972 255 0 0
-2.51184 -13.7764 0.0330352 0 255 0
-2.60753 -13.8032 -0.0345814 0 0 255
-2.50388 -13.8696 -0.0480652 255 0 0
-2.51097 -13.776 0.0379456 0 255 0
-2.61229 -13.8045 -0.0336484 0 0 255
-2.50262 -13.8744 -0.0479331 255 0 0
-2.5101 -13.7757 0.042856 0 255 0
-2.61705 -13.8057 -0.0327155 0 0 255
-2.50136 -13.8792 -0.0478011 255 0 0
-2.50923 -13.7753 0.0477664 0 255 0
-2.62181 -13.8069 -0.0317825 0 0 255
-2.50009 -13.8841 -0.047669 255 0 0
-2.50836 -13.7749 0.0526768 0 255 0
-2.62657 -13.8081 -0.0308496 0 0 255
-2.49883 -13.8889 -0.047537 255 0 0
-2.50749 -13.7746 0.0575872 0 255 0
-2.63133 -13.8093 -0.0299166 0 0 255
-2.49757 -13.8938 -0.047405 255 0 0
-2.50662 -13.7742 0.0624976 0 255 0
-2.63608 -13.8106 -0.0289836 0 0 255
-2.4963 -13.8986 -0.0472729 255 0 0
-2.50575 -13.7739 0.0674081 0 255 0
-2.64084 -13.8118 -0.0280507 0 0 255
-2.49504 -13.9034 -0.0471409 255 0 0
-2.50488 -13.7735 0.0723185 0 255 0
-2.6456 -13.813 -0.0271177 0 0 255
-2.49377 -13.9083 -0.0470089 255 0 0
-2.50401 -13.7731 0.0772289 0 255 0
-2.65036 -13.8142 -0.0261847 0 0 255
-2.49251 -13.9131 -0.0468768 255 0 0
-2.50314 -13.7728 0.0821393 0 255 0
-2.65512 -13.8154 -0.0252518 0 0 255
-2.49125 -13.9179 -0.0467448 255 0 0
-2.50227 -13.7724 0.0870497 0 255 0
-2.65988 -13.8166 -0.0243188 0 0 255
-2.48998 -13.9228 -0.0466128 255 0 0
-2.5014 -13.772 0.0919601 0 255 0
-2.66464 -13.8179 -0.0233858 0 0 255
-2.48872 -13.9276 -0.0464807 255 0 0
-2.50053 -13.7717 0.0968705 0 255 0
-2.6694 -13.8191 -0.0224529 0 0 255
-2.48745 -13.9324 -0.0463487 255 0 0
-2.49966 -13.7713 0.101781 0 255 0
-2.67415 -13.8203 -0.0215199 0 0 255
-2.48619 -13.9373 -0.0462167 255 0 0
-2.49879 -13.771 0.106691 0 255 0
-2.67891 -13.8215 -0.020587 0 0 255
-2.48493 -13.9421 -0.0460846 255 0 0
-2.49792 -13.7706 0.111602 0 255 0
-2.68367 -13.8227 -0.019654 0 0 255
-2.48366 -13.947 -0.0459526 255 0 0
-2.49705 -13.7702 0.116512 0 255 0
-2.68843 -13.824 -0.018721 0 0 255
-2.4824 -13.9518 -0.0458206 255 0 0
-2.49618 -13.7699 0.121423 0 255 0
-2.69319 -13.8252 -0.0177881 0 0 255
-2.48114 -13.9566 -0.0456885 255 0 0
-2.49531 -13.7695 0.126333 0 255 0
-2.69795 -13.8264 -0.0168551 0 0 255
-2.47987 -13.9615 -0.0455565 255 0 0
-2.49444 -13.7692 0.131243 0 255 0
-2.70271 -13.8276 -0.0159221 0 0 255
-2.47861 -13.9663 -0.0454245 255 0 0
-2.49357 -13.7688 0.136154 0 255 0
-2.70747 -13.8288 -0.0149892 0 0 255
-2.47734 -13.9711 -0.0452924 255 0 0
-2.4927 -13.7684 0.141064 0 255 0
-2.71222 -13.83 -0.0140562 0 0 255
-2.47608 -13.976 -0.0451604 255 0 0
-2.49183 -13.7681 0.145975 0 255 0
-2.71698 -13.8313 -0.0131232 0 0 255
-2.47482 -13.9808 -0.0450284 255 0 0
-2.49096 -13.7677 0.150885 0 255 0
-2.72174 -13.8325 -0.0121903 0 0 255
-2.47355 -13.9856 -0.0448963 255 0 0
-2.49009 -13.7674 0.155795 0 255 0
-2.7265 -13.8337 -0.0112573 0 0 255
-2.47229 -13.9905 -0.0447643 255 0 0
-2.48922 -13.767 0.160706 0 255 0
-2.73126 -13.8349 -0.0103244 0 0 255
-2.47103 -13.9953 -0.0446322 255 0 0
-2.48835 -13.7666 0.165616 0 255 0
-2.73602 -13.8361 -0.00939139 0 0 255
-2.46976 -14.0001 -0.0445002 255 0 0
-2.48748 -13.7663 0.170527 0 255 0
-2.74078 -13.8374 -0.00845843 0 0 255
-2.4685 -14.005 -0.0443682 255 0 0
-2.48661 -13.7659 0.175437 0 255 0
-2.74554 -13.8386 -0.00752546 0 0 255
-2.46723 -14.0098 -0.0442361 255 0 0
-2.48574 -13.7655 0.180347 0 255 0
-2.75029 -13.8398 -0.0065925 0 0 255
-2.46597 -14.0147 -0.0441041 255 0 0
-2.48487 -13.7652 0.185258 0 255 0
-2.75505 -13.841 -0.00565954 0 0 255
-2.46471 -14.0195 -0.0439721 255 0 0
-2.484 -13.7648 0.190168 0 255 0
-2.75981 -13.8422 -0.00472657 0 0 255
-2.46344 -14.0243 -0.04384 255 0 0
-2.48313 -13.7645 0.195079 0 255 0
-2.76457 -13.8434 -0.00379361 0 0 255
-2.46218 -14.0292 -0.043708 255 0 0
-2.48225 -13.7641 0.199989 0 255 0
-2.76933 -13.8447 -0.00286065 0 0 255
-2.46091 -14.034 -0.043576 255 0 0
-2.48138 -13.7637 0.2049 0 255 0
-2.77409 -13.8459 -0.00192768 0 0 255
-2.45965 -14.0388 -0.0434439 255 0 0
-2.48051 -13.7634 0.20981 0 255 0
-2.77885 -13.8471 -0.000994718 0 0 255
-2.45839 -14.0437 -0.0433119 255 0 0
-2.47964 -13.763 0.21472 0 255 0
-2.7836 -13.8483 -6.17547e-05 0 0 255
-2.45712 -14.0485 -0.0431799 255 0 0
-2.47877 -13.7627 0.219631 0 255 0
-2.78836 -13.8495 0.000871209 0 0 255
-2.45586 -14.0533 -0.0430478 255 0 0
-2.4779 -13.7623 0.224541 0 255 0
-2.79312 -13.8508 0.00180417 0 0 255
-2.4546 -14.0582 -0.0429158 255 0 0
-2.47703 -13.7619 0.229452 0 255 0
-2.79788 -13.852 0.00273714 0 0 255
-2.45333 -14.063 -0.0427838 255 0 0
-2.47616 -13.7616 0.234362 0 255 0
-2.80264 -13.8532 0.0036701 0 0 255
-2.45207 -14.0678 -0.0426517 255 0 0
-2.47529 -13.7612 0.239272 0 255 0
-2.8074 -13.8544 0.00460306 0 0 255
-2.4508 -14.0727 -0.0425197 255 0 0
-2.47442 -13.7608 0.244183 0 255 0
-2.81216 -13.8556 0.00553603 0 0 255
-2.44954 -14.0775 -0.0423876 255 0 0
-2.47355 -13.7605 0.249093 0 255 0
-2.81692 -13.8568 0.00646899 0 0 255
-2.44828 -14.0824 -0.0422556 255 0 0
-2.47268 -13.7601 0.254004 0 255 0
-2.82167 -13.8581 0.00740195 0 0 255
-2.44701 -14.0872 -0.0421236 255 0 0
-2.47181 -13.7598 0.258914 0 255 0
-2.82643 -13.8593 0.00833492 0 0 255
-2.44575 -14.092 -0.0419915 255 0 0
-2.47094 -13.7594 0.263824 0 255 0
-2.83119 -13.8605 0.00926788 0 0 255
-2.44449 -14.0969 -0.0418595 255 0 0
-2.47007 -13.759 0.268735 0 255 0
-2.83595 -13.8617 0.0102008 0 0 255
-2.44322 -14.1017 -0.0417275 255 0 0
-2.4692 -13.7587 0.273645 0 255 0
-2.84071 -13.8629 0.0111338 0 0 255
-2.44196 -14.1065 -0.0415954 255 0 0
-2.46833 -13.7583 0.278556 0 255 0
-2.84547 -13.8642 0.0120668 0 0 255
-2.44069 -14.1114 -0.0414634 255 0 0
-2.46746 -13.758 0.283466 0 255 0
-2.85023 -13.8654 0.0129997 0 0 255
-2.43943 -14.1162 -0.0413314 255 0 0
-2.46659 -13.7576 0.288377 0 255 0
-2.85499 -13.8666 0.0139327 0 0 255
-2.43817 -14.121 -0.0411993 255 0 0
-2.46572 -13.7572 0.293287 0 255 0
-2.85974 -13.8678 0.0148657 0 0 255
-2.4369 -14.1259 -0.0410673 255 0 0
-2.46485 -13.7569 0.298197 0 255 0
-2.8645 -13.869 0.0157986 0 0 255
-2.43564 -14.1307 -0.0409353 255 0 0
-2.46398 -13.7565 0.303108 0 255 0
-2.86926 -13.8702 0.0167316 0 0 255
-2.43437 -14.1355 -0.0408032 255 0 0
-2.46311 -13.7561 0.308018 0 255 0
-2.87402 -13.8715 0.0176646 0 0 255
-2.43311 -14.1404 -0.0406712 255 0 0
-2.46224 -13.7558 0.312929 0 255 0
-2.87878 -13.8727 0.0185975 0 0 255
-2.43185 -14.1452 -0.0405392 255 0 0
-2.46137 -13.7554 0.317839 0 255 0
-2.88354 -13.8739 0.0195305 0 0 255
-2.43058 -14.1501 -0.0404071 255 0 0
-2.4605 -13.7551 0.322749 0 255 0
-2.8883 -13.8751 0.0204634 0 0 255
-2.42932 -14.1549 -0.0402751 255 0 0
-2.45963 -13.7547 0.32766 0 255 0
-2.89306 -13.8763 0.0213964 0 0 255
-2.42806 -14.1597 -0.0401431 255 0 0
-2.45876 -13.7543 0.33257 0 255 0
-2.89781 -13.8776 0.0223294 0 0 255
-2.42679 -14.1646 -0.040011 255 0 0
-2.45789 -13.754 0.337481 0 255 0
-2.90257 -13.8788 0.0232623 0 0 255
-2.42553 -14.1694 -0.039879 255 0 0
-2.45702 -13.7536 0.342391 0 255 0
-2.90733 -13.88 0.0241953 0 0 255
-2.42426 -14.1742 -0.0397469 255 0 0
-2.45615 -13.7533 0.347301 0 255 0
-2.91209 -13.8812 0.0251283 0 0 255
-2.423 -14.1791 -0.0396149 255 0 0
-2.45528 -13.7529 0.352212 0 255 0
-2.91685 -13.8824 0.0260612 0 0 255
-2.42174 -14.1839 -0.0394829 255 0 0
-2.45441 -13.7525 0.357122 0 255 0
-2.92161 -13.8836 0.0269942 0 0 255
-2.42047 -14.1887 -0.0393508 255 0 0
-2.45354 -13.7522 0.362033 0 255 0
-2.92637 -13.8849 0.0279272 0 0 255
-2.41921 -14.1936 -0.0392188 255 0 0
-2.45267 -13.7518 0.366943 0 255 0
-2.93113 -13.8861 0.0288601 0 0 255
-2.41795 -14.1984 -0.0390868 255 0 0
-2.4518 -13.7514 0.371853 0 255 0
-2.93588 -13.8873 0.0297931 0 0 255
-2.41668 -14.2033 -0.0389547 255 0 0
-2.45093 -13.7511 0.376764 0 255 0
-2.94064 -13.8885 0.030726 0 0 255
-2.41542 -14.2081 -0.0388227 255 0 0
-2.45006 -13.7507 0.381674 0 255 0
-2.9454 -13.8897 0.031659 0 0 255
-2.41415 -14.2129 -0.0386907 255 0 0
-2.44919 -13.7504 0.386585 0 255 0
-2.95016 -13.891 0.032592 0 0 255
-2.41289 -14.2178 -0.0385586 255 0 0
-2.44832 -13.75 0.391495 0 255 0
-2.95492 -13.8922 0.0335249 0 0 255
-2.41163 -14.2226 -0.0384266 255 0 0
-2.44745 -13.7496 0.396406 0 255 0
-2.95968 -13.8934 0.0344579 0 0 255
-2.41036 -14.2274 -0.0382946 255 0 0
-2.44658 -13.7493 0.401316 0 255 0
-2.96444 -13.8946 0.0353909 0 0 255
-2.4091 -14.2323 -0.0381625 255 0 0
-2.44571 -13.7489 0.406226 0 255 0
-2.9692 -13.8958 0.0363238 0 0 255
-2.40783 -14.2371 -0.0380305 255 0 0
-2.44484 -13.7486 0.411137 0 255 0
-2.97395 -13.897 0.0372568 0 0 255
-2.40657 -14.2419 -0.0378985 255 0 0
-2.44397 -13.7482 0.416047 0 255 0
-2.97871 -13.8983 0.0381898 0 0 255
-2.40531 -14.2468 -0.0377664 255 0 0
-2.4431 -13.7478 0.420958 0 255 0
-2.98347 -13.8995 0.0391227 0 0 255
-2.40404 -14.2516 -0.0376344 255 0 0
-2.44223 -13.7475 0.425868 0 255 0
-2.98823 -13.9007 0.0400557 0 0 255
-2.40278 -14.2564 -0.0375024 255 0 0
-2.44136 -13.7471 0.430778 0 255 0
-2.99299 -13.9019 0.0409886 0 0 255
-2.40152 -14.2613 -0.0373703 255 0 0
-2.44049 -13.7467 0.435689 0 255 0
-2.99775 -13.9031 0.0419216 0 0 255
-1.65457 -13.3527 -0.0326392 255 0 0
-1.65457 -13.3527 -0.0326392 0 255 0
-1.65457 -13.3527 -0.0326392 0 0 255
-1.65208 -13.357 -0.0324955 255 0 0
-1.65382 -13.3521 -0.0277332 0 255 0
-1.65884 -13.3551 -0.0316849 0 0 255
-1.64958 -13.3613 -0.0323518 255 0 0
-1.65306 -13.3515 -0.0228272 0 255 0
-1.6631 -13.3575 -0.0307306 0 0 255
-1.64708 -13.3657 -0.0322081 255 0 0
-1.65231 -13.3509 -0.0179213 0 255 0
-1.66737 -13.36 -0.0297762 0 0 255
-1.64458 -13.37 -0.0320645 255 0 0
-1.65155 -13.3503 -0.0130153 0 255 0
-1.67163 -13.3624 -0.0288219 0 0 255
-1.64208 -13.3743 -0.0319208 255 0 0
-1.65079 -13.3497 -0.0081093 0 255 0
-1.67589 -13.3648 -0.0278676 0 0 255
-1.63958 -13.3786 -0.0317771 255 0 0
-1.65004 -13.3491 -0.00320332 0 255 0
-1.68016 -13.3673 -0.0269133 0 0 255
-1.63708 -13.383 -0.0316334 255 0 0
-1.64928 -13.3485 0.00170265 0 255 0
-1.68442 -13.3697 -0.025959 0 0 255
-1.63458 -13.3873 -0.0314897 255 0 0
-1.64853 -13.3479 0.00660863 0 255 0
-1.68868 -13.3721 -0.0250047 0 0 255
-1.63208 -13.3916 -0.031346 255 0 0
-1.64777 -13.3473 0.0115146 0 255 0
-1.69295 -13.3746 -0.0240503 0 0 255
-1.62958 -13.396 -0.0312023 255 0 0
-1.64701 -13.3467 0.0164206 0 255 0
-1.69721 -13.377 -0.023096 0 0 255
-1.62708 -13.4003 -0.0310587 255 0 0
-1.64626 -13.3461 0.0213266 0 255 0
-1.70148 -13.3794 -0.0221417 0 0 255
-1.62458 -13.4046 -0.030915 255 0 0
-1.6455 -13.3455 0.0262325 0 255 0
-1.70574 -13.3819 -0.0211874 0 0 255
-1.62208 -13.4089 -0.0307713 255 0 0
-1.64474 -13.3449 0.0311385 0 255 0
-1.71 -13.3843 -0.0202331 0 0 255
-1.61958 -13.4133 -0.0306276 255 0 0
-1.64399 -13.3443 0.0360445 0 255 0
-1.71427 -13.3867 -0.0192788 0 0 255
-1.61708 -13.4176 -0.0304839 255 0 0
-1.64323 -13.3437 0.0409505 0 255 0
-1.71853 -13.3891 -0.0183245 0 0 255
-1.61458 -13.4219 -0.0303402 255 0 0
-1.64248 -13.3431 0.0458564 0 255 0
-1.7228 -13.3916 -0.0173701 0 0 255
-1.61208 -13.4263 -0.0301966 255 0 0
-1.64172 -13.3425 0.0507624 0 255 0
-1.72706 -13.394 -0.0164158 0 0 255
-1.60958 -13.4306 -0.0300529 255 0 0
-1.64096 -13.3419 0.0556684 0 255 0
-1.73132 -13.3964 -0.0154615 0 0 255
-1.60708 -13.4349 -0.0299092 255 0 0
-1.64021 -13.3413 0.0605744 0 255 0
-1.73559 -13.3989 -0.0145072 0 0 255
-1.60458 -13.4392 -0.0297655 255 0 0
-1.63945 -13.3407 0.0654804 0 255 0
-1.73985 -13.4013 -0.0135529 0 0 255
-1.60208 -13.4436 -0.0296218 255 0 0
-1.63869 -13.3401 0.0703863 0 255 0
-1.74411 -13.4037 -0.0125986 0 0 255
-1.59958 -13.4479 -0.0294781 255 0 0
-1.63794 -13.3395 0.0752923 0 255 0
-1.74838 -13.4062 -0.0116442 0 0 255
-1.59708 -13.4522 -0.0293345 255 0 0
-1.63718 -13.3389 0.0801983 0 255 0
-1.75264 -13.4086 -0.0106899 0 0 255
-1.59458 -13.4565 -0.0291908 255 0 0
-1.63643 -13.3383 0.0851043 0 255 0
-1.75691 -13.411 -0.00973562 0 0 255
-1.59208 -13.4609 -0.0290471 255 0 0
-1.63567 -13.3377 0.0900102 0 255 0
-1.76117 -13.4135 -0.0087813 0 0 255
-1.58958 -13.4652 -0.0289034 255 0 0
-1.63491 -13.3371 0.0949162 0 255 0
-1.76543 -13.4159 -0.00782699 0 0 255
-1.58708 -13.4695 -0.0287597 255 0 0
-1.63416 -13.3365 0.0998222 0 255 0
-1.7697 -13.4183 -0.00687267 0 0 255
-1.58458 -13.4739 -0.028616 255 0 0
-1.6334 -13.3359 0.104728 0 255 0
-1.77396 -13.4207 -0.00591836 0 0 255
-1.58208 -13.4782 -0.0284724 255 0 0
-1.63265 -13.3353 0.109634 0 255 0
-1.77822 -13.4232 -0.00496404 0 0 255
-1.57958 -13.4825 -0.0283287 255 0 0
-1.63189 -13.3347 0.11454 0 255 0
-1.78249 -13.4256 -0.00400972 0 0 255
-1.57708 -13.4868 -0.028185 255 0 0
-1.63113 -13.3341 0.119446 0 255 0
-1.78675 -13.428 -0.00305541 0 0 255
-1.57459 -13.4912 -0.0280413 255 0 0
-1.63038 -13.3335 0.124352 0 255 0
-1.79102 -13.4305 -0.00210109 0 0 255
-1.57209 -13.4955 -0.0278976 255 0 0
-1.62962 -13.3329 0.129258 0 255 0
-1.79528 -13.4329 -0.00114678 0 0 255
-1.56959 -13.4998 -0.0277539 255 0 0
-1.62886 -13.3323 0.134164 0 255 0
-1.79954 -13.4353 -0.000192462 0 0 255
-1.56709 -13.5042 -0.0276102 255 0 0
-1.62811 -13.3317 0.13907 0 255 0
-1.80381 -13.4378 0.000761853 0 0 255
-1.56459 -13.5085 -0.0274666 255 0 0
-1.62735 -13.3311 0.143976 0 255 0
-1.80807 -13.4402 0.00171617 0 0 255
-1.56209 -13.5128 -0.0273229 255 0 0
-1.6266 -13.3305 0.148882 0 255 0
-1.81233 -13.4426 0.00267048 0 0 255
-1.55959 -13.5171 -0.0271792 255 0 0
-1.62584 -13.3299 0.153788 0 255 0
-1.8166 -13.4451 0.0036248 0 0 255
-1.55709 -13.5215 -0.0270355 255 0 0
-1.62508 -13.3293 0.158694 0 255 0
-1.82086 -13.4475 0.00457912 0 0 255
-1.55459 -13.5258 -0.0268918 255 0 0
-1.62433 -13.3287 0.1636 0 255 0
-1.82513 -13.4499 0.00553343 0 0 255
-1.55209 -13.5301 -0.0267481 255 0 0
-1.62357 -13.3281 0.168506 0 255 0
-1.82939 -13.4523 0.00648775 0 0 255
-1.54959 -13.5345 -0.0266045 255 0 0
-1.62282 -13.3275 0.173412 0 255 0
-1.83365 -13.4548 0.00744206 0 0 255
-1.54709 -13.5388 -0.0264608 255 0 0
-1.62206 -13.3269 0.178318 0 255 0
-1.83792 -13.4572 0.00839638 0 0 255
-1.54459 -13.5431 -0.0263171 255 0 0
-1.6213 -13.3263 0.183224 0 255 0
-1.84218 -13.4596 0.00935069 0 0 255
-1.54209 -13.5474 -0.0261734 255 0 0
-1.62055 -13.3257 0.18813 0 255 0
-1.84644 -13.4621 0.010305 0 0 255
-1.53959 -13.5518 -0.0260297 255 0 0
-1.61979 -13.3251 0.193036 0 255 0
-1.85071 -13.4645 0.0112593 0 0 255
-1.53709 -13.5561 -0.025886 255 0 0
-1.61903 -13.3245 0.197942 0 255 0
-1.85497 -13.4669 0.0122136 0 0 255
-1.53459 -13.5604 -0.0257424 255 0 0
-1.61828 -13.3239 0.202848 0 255 0
-1.85924 -13.4694 0.013168 0 0 255
-1.53209 -13.5647 -0.0255987 255 0 0
-1.61752 -13.3233 0.207754 0 255 0
-1.8635 -13.4718 0.0141223 0 0 255
-1.52959 -13.5691 -0.025455 255 0 0
-1.61677 -13.3227 0.21266 0 255 0
-1.86776 -13.4742 0.0150766 0 0 255
-1.52709 -13.5734 -0.0253113 255 0 0
-1.61601 -13.3221 0.217566 0 255 0
-1.87203 -13.4767 0.0160309 0 0 255
-1.52459 -13.5777 -0.0251676 255 0 0
-1.61525 -13.3215 0.222472 0 255 0
-1.87629 -13.4791 0.0169852 0 0 255
-1.52209 -13.5821 -0.0250239 255 0 0
-1.6145 -13.3209 0.227378 0 255 0
-1.88056 -13.4815 0.0179395 0 0 255
-1.51959 -13.5864 -0.0248803 255 0 0
-1.61374 -13.3203 0.232284 0 255 0
-1.88482 -13.484 0.0188938 0 0 255
-1.51709 -13.5907 -0.0247366 255 0 0
-1.61298 -13.3197 0.23719 0 255 0
-1.88908 -13.4864 0.0198482 0 0 255
-1.51459 -13.595 -0.0245929 255 0 0
-1.61223 -13.3191 0.242096 0 255 0
-1.89335 -13.4888 0.0208025 0 0 255
-1.51209 -13.5994 -0.0244492 255 0 0
-1.61147 -13.3185 0.247002 0 255 0
-1.89761 -13.4912 0.0217568 0 0 255
-1.50959 -13.6037 -0.0243055 255 0 0
-1.61072 -13.3179 0.251907 0 255 0
-1.90187 -13.4937 0.0227111 0 0 255
-1.50709 -13.608 -0.0241618 255 0 0
-1.60996 -13.3173 0.256813 0 255 0
-1.90614 -13.4961 0.0236654 0 0 255
-1.50459 -13.6124 -0.0240182 255 0 0
-1.6092 -13.3167 0.261719 0 255 0
-1.9104 -13.4985 0.0246197 0 0 255
-1.50209 -13.6167 -0.0238745 255 0 0
-1.60845 -13.3161 0.266625 0 255 0
-1.91467 -13.501 0.0255741 0 0 255
-1.4996 -13.621 -0.0237308 255 0 0
-1.60769 -13.3155 0.271531 0 255 0
-1.91893 -13.5034 0.0265284 0 0 255
-1.4971 -13.6253 -0.0235871 255 0 0
-1.60694 -13.3149 0.276437 0 255 0
-1.92319 -13.5058 0.0274827 0 0 255
-1.4946 -13.6297 -0.0234434 255 0 0
-1.60618 -13.3143 0.281343 0 255 0
-1.92746 -13.5083 0.028437 0 0 255
-1.4921 -13.634 -0.0232997 255 0 0
-1.60542 -13.3137 0.286249 0 255 0
-1.93172 -13.5107 0.0293913 0 0 255
-1.4896 -13.6383 -0.023156 255 0 0
-1.60467 -13.3131 0.291155 0 255 0
-1.93598 -13.5131 0.0303456 0 0 255
-1.4871 -13.6427 -0.0230124 255 0 0
-1.60391 -13.3125 0.296061 0 255 0
-1.94025 -13.5156 0.0312999 0 0 255
-1.4846 -13.647 -0.0228687 255 0 0
-1.60315 -13.3119 0.300967 0 255 0
-1.94451 -13.518 0.0322543 0 0 255
-1.4821 -13.6513 -0.022725 255 0 0
-1.6024 -13.3113 0.305873 0 255 0
-1.94878 -13.5204 0.0332086 0 0 255
-1.4796 -13.6556 -0.0225813 255 0 0
-1.60164 -13.3107 0.310779 0 255 0
-1.95304 -13.5228 0.0341629 0 0 255
-1.4771 -13.66 -0.0224376 255 0 0
-1.60089 -13.3101 0.315685 0 255 0
-1.9573 -13.5253 0.0351172 0 0 255
-1.4746 -13.6643 -0.0222939 255 0 0
-1.60013 -13.3095 0.320591 0 255 0
-1.96157 -13.5277 0.0360715 0 0 255
-1.4721 -13.6686 -0.0221503 255 0 0
-1.59937 -13.3089 0.325497 0 255 0
-1.96583 -13.5301 0.0370258 0 0 255
-1.4696 -13.6729 -0.0220066 255 0 0
-1.59862 -13.3083 0.330403 0 255 0
