ply
format ascii 1.0
element vertex 1259
property float x
property float y
property float z
property uchar red
property uchar green
property uchar blue
element face 0
property list uchar int vertex_indices
end_header
0.0154804 -0.0589865 -0.0391279 0 255 255
0.0157622 -0.0587771 -0.0393648 0 255 255
0.0160202 -0.0585696 -0.0395953 0 255 255
0.0162503 -0.0583662 -0.0398169 0 255 255
0.0164517 -0.0581685 -0.0400293 0 255 255
0.0166221 -0.0579751 -0.0402306 0 255 255
0.0167631 -0.0577814 -0.0404258 0 255 255
0.0168727 -0.0575854 -0.0406142 0 255 255
0.016952 -0.0573826 -0.0407973 0 255 255
0.0170022 -0.0571683 -0.040976 0 255 255
0.0170247 -0.0569375 -0.041151 0 255 255
0.0170219 -0.0566864 -0.0413218 0 255 255
0.0169973 -0.0564065 -0.0414909 0 255 255
0.0169533 -0.0560943 -0.0416565 0 255 255
0.0168928 -0.0557442 -0.0418167 0 255 255
0.0168195 -0.0553527 -0.0419717 0 255 255
0.0167373 -0.0549164 -0.04212 0 255 255
0.01665 -0.0544332 -0.0422599 0 255 255
0.0164698 -0.0533739 -0.0425197 0 255 255
0.0163768 -0.0527459 -0.0426276 0 255 255
0.0162845 -0.0520733 -0.0427228 0 255 255
0.0161931 -0.0513635 -0.0428049 0 255 255
0.0161008 -0.0506107 -0.0428749 0 255 255
0.0160068 -0.049822 -0.0429328 0 255 255
0.0159085 -0.0490012 -0.0429802 0 255 255
0.0158044 -0.0481573 -0.0430197 0 255 255
0.0156901 -0.0472833 -0.0430531 0 255 255
0.0153106 -0.0445974 -0.0431411 0 255 255
0.0151409 -0.0436473 -0.0431638 0 255 255
0.0149495 -0.0426897 -0.0431895 0 255 255
0.0147314 -0.0417133 -0.0432202 0 255 255
0.0144863 -0.0407225 -0.0432566 0 255 255
0.014213 -0.0397167 -0.0433014 0 255 255
0.0139116 -0.0387003 -0.0433551 0 255 255
0.0135774 -0.0376599 -0.0434191 0 255 255
0.0132148 -0.036607 -0.0434932 0 255 255
0.0128186 -0.0355265 -0.0435788 0 255 255
0.0123912 -0.0344241 -0.0436749 0 255 255
0.0119334 -0.033298 -0.0437816 0 255 255
0.0114486 -0.032154 -0.0438982 0 255 255
0.0109328 -0.0309767 -0.0440261 0 255 255
0.0103906 -0.0297729 -0.0441642 0 255 255
0.00982326 -0.0285426 -0.0443116 0 255 255
0.00923329 -0.0272856 -0.0444676 0 255 255
0.00862084 -0.0260008 -0.0446319 0 255 255
0.00799125 -0.0246963 -0.0448035 0 255 255
0.00733861 -0.0233553 -0.0449844 0 255 255
0.00666764 -0.0219855 -0.0451744 0 255 255
0.00597826 -0.0205867 -0.0453737 0 255 255
0.00527023 -0.0191587 -0.0455832 0 255 255
0.00454399 -0.0177005 -0.0458034 0 255 255
0.00379791 -0.0162113 -0.0460345 0 255 255
0.00303066 -0.0146904 -0.0462762 0 255 255
0.00224692 -0.0131467 -0.0465275 0 255 255
0.00144199 -0.0115703 -0.0467885 0 255 255
0.000609708 -0.00995101 -0.0470608 0 255 255
-0.000245091 -0.00829864 -0.047342 0 255 255
-0.0011225 -0.00661328 -0.0476324 0 255 255
-0.0020231 -0.00489501 -0.047932 0 255 255
-0.00294737 -0.00314525 -0.0482401 0 255 255
-0.00389485 -0.0013651 -0.0485557 0 255 255
-0.00485894 0.000432904 -0.0488756 0 255 255
-0.00585151 0.00226918 -0.0492024 0 255 255
-0.00686629 0.00413162 -0.0495332 0 255 255
-0.00790279 0.00601951 -0.0498662 0 255 255
-0.00896126 0.00793145 -0.0501999 0 255 255
-0.0100343 0.00985394 -0.0505298 0 255 255
-0.0111347 0.0118089 -0.0508593 0 255 255
-0.0122555 0.0137827 -0.0511852 0 255 255
-0.0133967 0.0157742 -0.0515067 0 255 255
-0.0145594 0.0177837 -0.0518223 0 255 255
-0.0157378 0.0197983 -0.0521289 0 255 255
-0.0169469 0.021843 -0.05243 0 255 255
-0.0181805 0.0239073 -0.0527237 0 255 255
-0.0194402 0.0259927 -0.0530107 0 255 255
-0.0207197 0.028088 -0.0532891 0 255 255
-0.0220361 0.0302222 -0.0535618 0 255 255
-0.0233816 0.0323859 -0.0538258 0 255 255
-0.0247563 0.0345806 -0.0540792 0 255 255
-0.0261601 0.0368098 -0.0543199 0 255 255
-0.0275928 0.039077 -0.0545455 0 255 255
-0.0290459 0.0413706 -0.0547521 0 255 255
-0.0305366 0.0437213 -0.0549399 0 255 255
-0.0335749 0.0485148 -0.0552698 0 255 255
-0.0351508 0.0510068 -0.0553836 0 255 255
-0.0367444 0.0535322 -0.0554693 0 255 255
-0.0383739 0.0561232 -0.0555282 0 255 255
-0.0400277 0.0587647 -0.0555604 0 255 255
-0.041703 0.0614575 -0.0555675 0 255 255
-0.0433972 0.0642004 -0.055551 0 255 255
-0.0451081 0.0669915 -0.0555131 0 255 255
-0.0468345 0.0698268 -0.0554535 0 255 255
-0.0485637 0.0726841 -0.0553702 0 255 255
-0.0503034 0.075577 -0.0552572 0 255 255
-0.052074 0.0785384 -0.0551047 0 255 255
-0.0538303 0.0814895 -0.054906 0 255 255
-0.0556145 0.0844959 -0.0546476 0 255 255
-0.0573928 0.0874926 -0.0543257 0 255 255
-0.0591879 0.0905056 -0.0539302 0 255 255
-0.0609684 0.093468 -0.0534648 0 255 255
-0.0627576 0.0964047 -0.0529234 0 255 255
-0.0645691 0.0993229 -0.0523022 0 255 255
-0.0663844 0.102177 -0.0516109 0 255 255
-0.0682301 0.104992 -0.0508459 0 255 255
-0.0700976 0.107747 -0.0500192 0 255 255
-0.0719873 0.110436 -0.049141 0 255 255
-0.0738844 0.113047 -0.048228 0 255 255
-0.0758048 0.115613 -0.0472793 0 255 255
-0.0777293 0.118123 -0.0463107 0 255 255
-0.0796518 0.120581 -0.0453347 0 255 255
-0.0815668 0.122988 -0.0443637 0 255 255
-0.0834671 0.125346 -0.0434086 0 255 255
-0.085345 0.127659 -0.0424797 0 255 255
-0.087193 0.129927 -0.0415853 0 255 255
-0.0889925 0.13214 -0.0407379 0 255 255
-0.09076 0.134329 -0.0399323 0 255 255
-0.0924806 0.136484 -0.0391753 0 255 255
-0.0941421 0.138597 -0.0384722 0 255 255
-0.0957655 0.140699 -0.0378121 0 255 255
-0.0973413 0.142779 -0.0371953 0 255 255
-0.0988718 0.144842 -0.036615 0 255 255
-0.100351 0.14688 -0.0360669 0 255 255
-0.1018 0.14892 -0.0355348 0 255 255
-0.103214 0.150951 -0.0350141 0 255 255
-0.104598 0.152971 -0.0344955 0 255 255
-0.105957 0.154978 -0.0339723 0 255 255
-0.107299 0.15697 -0.0334388 0 255 255
-0.108624 0.158931 -0.032895 0 255 255
-0.109953 0.160883 -0.032332 0 255 255
-0.111285 0.162813 -0.0317517 0 255 255
-0.112627 0.164721 -0.0311538 0 255 255
-0.113984 0.166604 -0.0305401 0 255 255
-0.115358 0.168465 -0.0299139 0 255 255
-0.116755 0.170304 -0.0292787 0 255 255
-0.118176 0.17212 -0.0286379 0 255 255
-0.119612 0.173907 -0.0279993 0 255 255
-0.122535 0.177459 -0.026723 0 255 255
-0.124034 0.179216 -0.0260984 0 255 255
-0.125541 0.180966 -0.0254913 0 255 255
-0.127053 0.182711 -0.0249079 0 255 255
-0.128563 0.184453 -0.0243535 0 255 255
-0.130057 0.186183 -0.0238356 0 255 255
-0.13155 0.187922 -0.0233515 0 255 255
-0.133029 0.189663 -0.022907 0 255 255
-0.134498 0.191415 -0.0225009 0 255 255
-0.135936 0.19316 -0.0221407 0 255 255
-0.137351 0.19491 -0.0218258 0 255 255
-0.138742 0.196665 -0.0215575 0 255 255
-0.140107 0.198425 -0.0213348 0 255 255
-0.141439 0.200181 -0.0211582 0 255 255
-0.142765 0.201967 -0.0210232 0 255 255
-0.144053 0.203739 -0.020932 0 255 255
-0.145329 0.20553 -0.0208783 0 255 255
-0.146577 0.20732 -0.0208592 0 255 255
-0.147816 0.209129 -0.0208692 0 255 255
-0.149039 0.210947 -0.0209045 0 255 255
-0.150245 0.212774 -0.0209608 0 255 255
-0.151434 0.214607 -0.0210343 0 255 255
-0.152607 0.216444 -0.0211211 0 255 255
-0.153757 0.218273 -0.0212167 0 255 255
-0.154899 0.220113 -0.0213189 0 255 255
-0.156026 0.221954 -0.0214233 0 255 255
-0.157143 0.223794 -0.0215258 0 255 255
-0.158243 0.225621 -0.0216224 0 255 255
-0.159341 0.227458 -0.021713 0 255 255
-0.160433 0.229296 -0.0217958 0 255 255
-0.161521 0.231134 -0.0218705 0 255 255
-0.162605 0.232973 -0.021937 0 255 255
-0.163687 0.234816 -0.0219959 0 255 255
-0.164763 0.236652 -0.0220472 0 255 255
-0.165846 0.238505 -0.0220923 0 255 255
-0.166931 0.240365 -0.0221312 0 255 255
-0.168014 0.242234 -0.0221648 0 255 255
-0.169096 0.244115 -0.0221938 0 255 255
-0.170176 0.246011 -0.0222186 0 255 255
-0.171246 0.247911 -0.0222393 0 255 255
-0.172317 0.249841 -0.0222574 0 255 255
-0.173383 0.251792 -0.0222747 0 255 255
-0.174441 0.253766 -0.0222933 0 255 255
-0.175486 0.25575 -0.0223155 0 255 255
-0.176531 0.25777 -0.0223441 0 255 255
-0.177569 0.259815 -0.0223817 0 255 255
-0.178603 0.261885 -0.0224308 0 255 255
-0.179633 0.263981 -0.0224935 0 255 255
-0.180653 0.266089 -0.0225713 0 255 255
-0.181677 0.268237 -0.0226674 0 255 255
-0.182702 0.270413 -0.0227835 0 255 255
-0.183729 0.272617 -0.0229215 0 255 255
-0.184758 0.274848 -0.0230824 0 255 255
-0.185784 0.277093 -0.023267 0 255 255
-0.18682 0.279377 -0.0234786 0 255 255
-0.187861 0.281688 -0.0237171 0 255 255
-0.188906 0.284023 -0.023984 0 255 255
-0.18995 0.286368 -0.0242785 0 255 255
-0.191003 0.288748 -0.0246033 0 255 255
-0.192053 0.291135 -0.0249538 0 255 255
-0.193111 0.293557 -0.0253332 0 255 255
-0.194169 0.295998 -0.0257366 0 255 255
-0.195227 0.298459 -0.0261619 0 255 255
-0.196275 0.300925 -0.0266036 0 255 255
-0.197326 0.303427 -0.0270641 0 255 255
-0.198371 0.30595 -0.0275369 0 255 255
-0.19941 0.308493 -0.0280186 0 255 255
-0.200442 0.311054 -0.0285047 0 255 255
-0.201465 0.313633 -0.0289914 0 255 255
-0.202473 0.316212 -0.0294712 0 255 255
-0.203473 0.31882 -0.0299458 0 255 255
-0.204459 0.321438 -0.0304086 0 255 255
-0.205428 0.324066 -0.0308568 0 255 255
-0.206373 0.326684 -0.0312832 0 255 255
-0.207309 0.32934 -0.0316934 0 255 255
-0.208218 0.331987 -0.0320783 0 255 255
-0.209104 0.334639 -0.0324404 0 255 255
-0.209963 0.337282 -0.0327788 0 255 255
-0.210805 0.339948 -0.0330993 0 255 255
-0.211627 0.342621 -0.0334014 0 255 255
-0.212422 0.345288 -0.0336848 0 255 255
-0.213203 0.347982 -0.0339548 0 255 255
-0.213965 0.350691 -0.0342106 0 255 255
-0.214707 0.353415 -0.0344514 0 255 255
-0.215426 0.356142 -0.0346766 0 255 255
-0.216136 0.358925 -0.0348895 0 255 255
-0.216822 0.361699 -0.035082 0 255 255
-0.217495 0.364519 -0.0352556 0 255 255
-0.218153 0.367372 -0.0354075 0 255 255
-0.218792 0.370242 -0.0355339 0 255 255
-0.219421 0.373165 -0.0356314 0 255 255
-0.220043 0.376125 -0.0356936 0 255 255
-0.220662 0.37912 -0.0357141 0 255 255
-0.221283 0.38215 -0.0356842 0 255 255
-0.221907 0.385214 -0.0355942 0 255 255
-0.22253 0.38829 -0.0354347 0 255 255
-0.223157 0.391412 -0.0351965 0 255 255
-0.223781 0.394556 -0.0348741 0 255 255
-0.224401 0.397715 -0.0344629 0 255 255
-0.225013 0.400884 -0.0339617 0 255 255
-0.225608 0.404052 -0.033369 0 255 255
-0.226175 0.407193 -0.032689 0 255 255
-0.226712 0.410339 -0.0319146 0 255 255
-0.227205 0.413465 -0.0310518 0 255 255
-0.227645 0.416563 -0.0301032 0 255 255
-0.228023 0.419612 -0.0290805 0 255 255
-0.22834 0.422643 -0.0279783 0 255 255
-0.228595 0.425637 -0.0268098 0 255 255
-0.22879 0.428592 -0.0255848 0 255 255
-0.22893 0.431491 -0.0243215 0 255 255
-0.229027 0.434386 -0.0230092 0 255 255
-0.229085 0.437224 -0.0216865 0 255 255
-0.229117 0.44002 -0.0203626 0 255 255
-0.229134 0.442768 -0.0190532 0 255 255
-0.229147 0.445465 -0.017776 0 255 255
-0.229169 0.448089 -0.0165554 0 255 255
-0.229213 0.450667 -0.0153906 0 255 255
-0.229292 0.45318 -0.014304 0 255 255
-0.229413 0.455623 -0.0133073 0 255 255
-0.229583 0.457998 -0.0124101 0 255 255
-0.229805 0.460307 -0.0116172 0 255 255
-0.230082 0.462556 -0.0109313 0 255 255
-0.23041 0.464741 -0.0103563 0 255 255
-0.230785 0.466886 -0.00988305 0 255 255
-0.231207 0.469016 -0.00950253 0 255 255
-0.231662 0.471117 -0.00921027 0 255 255
-0.232153 0.473226 -0.00898853 0 255 255
-0.232671 0.475339 -0.00882423 0 255 255
-0.233209 0.477461 -0.00870182 0 255 255
-0.233762 0.479593 -0.00860524 0 255 255
-0.234319 0.48172 -0.00851825 0 255 255
-0.234881 0.483861 -0.00842448 0 255 255
-0.235437 0.485993 -0.0083116 0 255 255
-0.235981 0.488104 -0.00816783 0 255 255
-0.236505 0.490185 -0.00798333 0 255 255
-0.23701 0.49224 -0.00774961 0 255 255
-0.237486 0.494238 -0.00746478 0 255 255
-0.237938 0.496185 -0.00712702 0 255 255
-0.238363 0.498069 -0.00673828 0 255 255
-0.238768 0.499914 -0.00629688 0 255 255
-0.239153 0.501709 -0.00581057 0 255 255
-0.239523 0.503458 -0.00528531 0 255 255
-0.239883 0.505166 -0.00472801 0 255 255
-0.240235 0.506826 -0.00414957 0 255 255
-0.240587 0.508463 -0.00354991 0 255 255
-0.240939 0.510072 -0.00293972 0 255 255
-0.241293 0.511655 -0.00232478 0 255 255
-0.241652 0.513206 -0.00171455 0 255 255
-0.242023 0.514747 -0.00110587 0 255 255
-0.242406 0.516271 -0.0005066 0 255 255
-0.242803 0.51778 7.9073e-05 0 255 255
-0.243218 0.519276 0.000648369 0 255 255
-0.243647 0.520751 0.00119494 0 255 255
-0.244098 0.522226 0.00172152 0 255 255
-0.244567 0.523694 0.00222156 0 255 255
-0.245055 0.525157 0.00269119 0 255 255
-0.245561 0.526606 0.00312483 0 255 255
-0.246094 0.528069 0.00352712 0 255 255
-0.246646 0.529521 0.00388925 0 255 255
-0.24722 0.530972 0.00421411 0 255 255
-0.247813 0.532414 0.00449986 0 255 255
-0.248431 0.533867 0.00475047 0 255 255
-0.249069 0.535313 0.00496278 0 255 255
-0.249733 0.536772 0.00513984 0 255 255
-0.250415 0.538226 0.00527991 0 255 255
-0.251121 0.539695 0.00538567 0 255 255
-0.251847 0.541167 0.00545706 0 255 255
-0.252588 0.542635 0.00549479 0 255 255
-0.253351 0.544117 0.00550124 0 255 255
-0.254131 0.545605 0.00547798 0 255 255
-0.254926 0.5471 0.00542607 0 255 255
-0.255736 0.548602 0.00534716 0 255 255
-0.256561 0.550113 0.00524313 0 255 255
-0.257393 0.551623 0.00511551 0 255 255
-0.258244 0.553152 0.00496366 0 255 255
-0.259107 0.554688 0.00478991 0 255 255
-0.259976 0.556224 0.00459604 0 255 255
-0.260862 0.557777 0.00438107 0 255 255
-0.261761 0.559339 0.00414739 0 255 255
-0.262671 0.560908 0.00389574 0 255 255
-0.263593 0.562487 0.00362781 0 255 255
-0.264527 0.564074 0.00334413 0 255 255
-0.265473 0.565669 0.00304473 0 255 255
-0.266424 0.567265 0.00273263 0 255 255
-0.267394 0.568881 0.00240637 0 255 255
-0.268378 0.570509 0.00206881 0 255 255
-0.269376 0.57215 0.00172119 0 255 255
-0.270392 0.573805 0.00136496 0 255 255
-0.271419 0.575466 0.00100325 0 255 255
-0.272471 0.577153 0.000631352 0 255 255
-0.273544 0.578859 0.000250841 0 255 255
-0.27464 0.580582 -0.000138073 0 255 255
-0.275761 0.582324 -0.000534679 0 255 255
-0.276902 0.584074 -0.000934947 0 255 255
-0.27808 0.585854 -0.00134197 0 255 255
-0.279291 0.587654 -0.00175174 0 255 255
-0.280535 0.589474 -0.00216212 0 255 255
-0.281813 0.591314 -0.00257151 0 255 255
-0.283124 0.593178 -0.00297931 0 255 255
-0.284468 0.595065 -0.00338546 0 255 255
-0.285843 0.59698 -0.00379033 0 255 255
-0.287249 0.598923 -0.00419385 0 255 255
-0.288676 0.600884 -0.00459318 0 255 255
-0.290142 0.602889 -0.00499244 0 255 255
-0.291635 0.604925 -0.00538796 0 255 255
-0.293147 0.606982 -0.00577406 0 255 255
-0.294695 0.609085 -0.0061531 0 255 255
-0.29627 0.61122 -0.00652014 0 255 255
-0.29787 0.613389 -0.0068725 0 255 255
-0.299485 0.615577 -0.00720406 0 255 255
-0.301132 0.617809 -0.00751517 0 255 255
-0.302799 0.620073 -0.0077989 0 255 255
-0.304484 0.622366 -0.00805065 0 255 255
-0.306186 0.624686 -0.00826636 0 255 255
-0.307891 0.627017 -0.00844123 0 255 255
-0.30962 0.629385 -0.00857379 0 255 255
-0.311361 0.631773 -0.00865966 0 255 255
-0.313111 0.63418 -0.0086975 0 255 255
-0.31487 0.636607 -0.00868742 0 255 255
-0.316633 0.639056 -0.00863021 0 255 255
-0.318403 0.64153 -0.00852843 0 255 255
-0.320166 0.644014 -0.00838611 0 255 255
-0.321945 0.646544 -0.00820479 0 255 255
-0.323728 0.649107 -0.00798861 0 255 255
-0.325514 0.651705 -0.00774064 0 255 255
-0.327292 0.654324 -0.00746498 0 255 255
-0.329086 0.656999 -0.00716131 0 255 255
-0.330886 0.659715 -0.00683356 0 255 255
-0.332695 0.662471 -0.00648378 0 255 255
-0.334513 0.665266 -0.00611401 0 255 255
-0.336339 0.668098 -0.00572428 0 255 255
-0.338157 0.670948 -0.00531512 0 255 255
-0.339991 0.673847 -0.00487695 0 255 255
-0.34183 0.676772 -0.00440568 0 255 255
-0.343676 0.679716 -0.0038947 0 255 255
-0.345533 0.682667 -0.00333771 0 255 255
-0.347408 0.685618 -0.00272973 0 255 255
-0.349294 0.68854 -0.00207119 0 255 255
-0.35122 0.691456 -0.00135302 0 255 255
-0.353177 0.694338 -0.000578769 0 255 255
-0.355168 0.697171 0.000250256 0 255 255
-0.357192 0.699944 0.00113132 0 255 255
-0.359234 0.702628 0.00205673 0 255 255
-0.361316 0.705244 0.00303492 0 255 255
-0.363421 0.707765 0.00405466 0 255 255
-0.365547 0.710187 0.0051075 0 255 255
-0.367674 0.712494 0.00617704 0 255 255
-0.369819 0.714718 0.00726375 0 255 255
-0.371957 0.71685 0.00834552 0 255 255
-0.374075 0.718894 0.00940795 0 255 255
-0.376164 0.720861 0.0104378 0 255 255
-0.3782 0.722747 0.0114167 0 255 255
-0.3802 0.724585 0.0123474 0 255 255
-0.38214 0.726373 0.0132158 0 255 255
-0.384012 0.728117 0.0140158 0 255 255
-0.385812 0.729826 0.0147457 0 255 255
-0.387536 0.731506 0.0154057 0 255 255
-0.389182 0.733162 0.0159995 0 255 255
-0.390754 0.7348 0.0165303 0 255 255
-0.392255 0.736421 0.017003 0 255 255
-0.393682 0.738017 0.0174206 0 255 255
-0.395062 0.739608 0.0177956 0 255 255
-0.396391 0.741175 0.0181331 0 255 255
-0.397696 0.742736 0.0184473 0 255 255
-0.398982 0.744281 0.0187469 0 255 255
-0.40026 0.745809 0.0190435 0 255 255
-0.401531 0.74731 0.0193454 0 255 255
-0.402821 0.748801 0.0196664 0 255 255
-0.404129 0.75027 0.0200129 0 255 255
-0.405463 0.75171 0.0203923 0 255 255
-0.406828 0.753118 0.0208113 0 255 255
-0.408229 0.754492 0.0212746 0 255 255
-0.40966 0.75582 0.0217808 0 255 255
-0.411138 0.757116 0.0223332 0 255 255
-0.41265 0.758372 0.0229235 0 255 255
-0.414191 0.759588 0.0235447 0 255 255
-0.415756 0.760768 0.0241877 0 255 255
-0.41733 0.761906 0.0248383 0 255 255
-0.418936 0.76303 0.0254982 0 255 255
-0.420536 0.764123 0.0261448 0 255 255
-0.422131 0.765197 0.0267728 0 255 255
-0.423715 0.766257 0.0273733 0 255 255
-0.425279 0.767307 0.0279394 0 255 255
-0.426806 0.768344 0.0284636 0 255 255
-0.428311 0.769385 0.0289506 0 255 255
-0.42978 0.770427 0.0293955 0 255 255
-0.431212 0.771471 0.0297986 0 255 255
-0.432605 0.77252 0.0301611 0 255 255
-0.433951 0.773568 0.030483 0 255 255
-0.435271 0.774631 0.0307698 0 255 255
-0.436558 0.775704 0.0310212 0 255 255
-0.437815 0.776789 0.0312387 0 255 255
-0.439039 0.77788 0.0314228 0 255 255
-0.440249 0.778993 0.031578 0 255 255
-0.441445 0.780121 0.0317051 0 255 255
-0.442631 0.781264 0.0318066 0 255 255
-0.443813 0.782425 0.0318843 0 255 255
-0.44499 0.783594 0.0319404 0 255 255
-0.446186 0.784795 0.0319786 0 255 255
-0.447368 0.78599 0.0320001 0 255 255
-0.448584 0.787222 0.0320072 0 255 255
-0.449805 0.788463 0.0320009 0 255 255
-0.451042 0.789721 0.0319831 0 255 255
-0.452295 0.790997 0.0319548 0 255 255
-0.453557 0.792281 0.0319172 0 255 255
-0.45484 0.793592 0.0318696 0 255 255
-0.456136 0.79492 0.0318105 0 255 255
-0.457441 0.796267 0.0317377 0 255 255
-0.458745 0.797626 0.0316492 0 255 255
-0.460062 0.799014 0.0315417 0 255 255
-0.461381 0.800424 0.0314123 0 255 255
-0.4627 0.801856 0.0312589 0 255 255
-0.464016 0.803311 0.03108 0 255 255
-0.465318 0.804781 0.0308767 0 255 255
-0.466622 0.806285 0.030647 0 255 255
-0.467916 0.807816 0.030393 0 255 255
-0.469201 0.809375 0.0301153 0 255 255
-0.470477 0.810963 0.0298147 0 255 255
-0.471743 0.812583 0.0294926 0 255 255
-0.472999 0.814235 0.0291502 0 255 255
-0.474243 0.81592 0.0287865 0 255 255
-0.475467 0.817626 0.0284019 0 255 255
-0.476684 0.819374 0.0279895 0 255 255
-0.477886 0.82115 0.0275485 0 255 255
-0.479066 0.822942 0.0270779 0 255 255
-0.480238 0.824769 0.0265687 0 255 255
-0.481398 0.826617 0.0260206 0 255 255
-0.482546 0.828484 0.025433 0 255 255
-0.483685 0.830369 0.0248063 0 255 255
-0.484816 0.83227 0.0241422 0 255 255
-0.485939 0.834177 0.0234481 0 255 255
-0.487071 0.836111 0.0227197 0 255 255
-0.488213 0.838063 0.0219655 0 255 255
-0.489368 0.840031 0.0211923 0 255 255
-0.490542 0.842016 0.0204086 0 255 255
-0.491727 0.844004 0.0196286 0 255 255
-0.492933 0.846018 0.0188559 0 255 255
-0.494156 0.848051 0.0181056 0 255 255
-0.495387 0.8501 0.0173909 0 255 255
-0.496622 0.852163 0.0167218 0 255 255
-0.497852 0.85424 0.0161076 0 255 255
-0.499071 0.856325 0.0155552 0 255 255
-0.500264 0.858401 0.0150738 0 255 255
-0.50144 0.860489 0.0146583 0 255 255
-0.502587 0.862574 0.0143121 0 255 255
-0.503702 0.864653 0.0140316 0 255 255
-0.504776 0.866712 0.013814 0 255 255
-0.50582 0.868781 0.0136493 0 255 255
-0.506828 0.870849 0.0135316 0 255 255
-0.507801 0.872922 0.0134533 0 255 255
-0.508747 0.875002 0.0134087 0 255 255
-0.509668 0.87708 0.0133942 0 255 255
-0.510586 0.879188 0.0134083 0 255 255
-0.511502 0.881322 0.0134554 0 255 255
-0.512417 0.883487 0.0135457 0 255 255
-0.513325 0.885685 0.0136932 0 255 255
-0.514217 0.887912 0.0139111 0 255 255
-0.515074 0.890149 0.0142049 0 255 255
-0.515894 0.892399 0.0145774 0 255 255
-0.516676 0.894665 0.0150321 0 255 255
-0.517407 0.896924 0.0155687 0 255 255
-0.518078 0.899153 0.0161858 0 255 255
-0.518698 0.90137 0.0168945 0 255 255
-0.519264 0.903555 0.0176965 0 255 255
-0.519774 0.905701 0.0185959 0 255 255
-0.52023 0.907801 0.0195938 0 255 255
-0.520629 0.909848 0.0206869 0 255 255
-0.520975 0.911824 0.0218634 0 255 255
-0.521278 0.913747 0.0231277 0 255 255
-0.521549 0.915601 0.024462 0 255 255
-0.521797 0.917387 0.0258534 0 255 255
-0.522033 0.919091 0.0272768 0 255 255
-0.52227 0.920734 0.0287316 0 255 255
-0.522519 0.922304 0.0301894 0 255 255
-0.522791 0.923798 0.031629 0 255 255
-0.523096 0.925217 0.0330297 0 255 255
-0.523444 0.926562 0.0343712 0 255 255
-0.523838 0.927828 0.0356288 0 255 255
-0.524289 0.929036 0.0368048 0 255 255
-0.524798 0.930183 0.0378799 0 255 255
-0.525364 0.931278 0.0388474 0 255 255
-0.525984 0.932329 0.0397035 0 255 255
-0.526654 0.933348 0.0404485 0 255 255
-0.527361 0.934337 0.0410825 0 255 255
-0.528107 0.93532 0.0416206 0 255 255
-0.528878 0.9363 0.0420677 0 255 255
-0.529664 0.937275 0.0424318 0 255 255
-0.530469 0.938265 0.0427306 0 255 255
-0.531281 0.939264 0.0429748 0 255 255
-0.532098 0.940271 0.0431792 0 255 255
-0.532915 0.941282 0.0433585 0 255 255
-0.533725 0.942287 0.0435264 0 255 255
-0.534538 0.943293 0.0437001 0 255 255
-0.535349 0.94429 0.0438946 0 255 255
-0.536156 0.945273 0.0441228 0 255 255
-0.536958 0.946237 0.0443957 0 255 255
-0.537757 0.947178 0.0447214 0 255 255
-0.538553 0.94809 0.0451053 0 255 255
-0.539343 0.948962 0.0455476 0 255 255
-0.540133 0.949797 0.0460493 0 255 255
-0.540929 0.950599 0.0466106 0 255 255
-0.541731 0.951365 0.0472265 0 255 255
-0.542532 0.952087 0.0478823 0 255 255
-0.54334 0.95277 0.0485726 0 255 255
-0.544157 0.953416 0.0492867 0 255 255
-0.544988 0.954027 0.0500147 0 255 255
-0.545836 0.954606 0.0507483 0 255 255
-0.546705 0.955156 0.0514776 0 255 255
-0.547593 0.955678 0.0521884 0 255 255
-0.548514 0.956183 0.0528823 0 255 255
-0.549467 0.956672 0.0535484 0 255 255
-0.550451 0.95715 0.054182 0 255 255
-0.551462 0.957618 0.0547765 0 255 255
-0.552511 0.958086 0.0553369 0 255 255
-0.553589 0.958553 0.055857 0 255 255
-0.554697 0.959021 0.0563347 0 255 255
-0.555833 0.959493 0.056771 0 255 255
-0.556993 0.959974 0.0571688 0 255 255
-0.558175 0.960465 0.0575304 0 255 255
-0.559375 0.960969 0.0578581 0 255 255
-0.560575 0.961481 0.0581515 0 255 255
-0.561809 0.962019 0.0584226 0 255 255
-0.563044 0.96257 0.0586676 0 255 255
-0.564284 0.963137 0.058891 0 255 255
-0.565526 0.963719 0.0590957 0 255 255
-0.56676 0.964311 0.0592826 0 255 255
-0.568 0.964919 0.0594559 0 255 255
-0.569237 0.965537 0.0596157 0 255 255
-0.570462 0.966162 0.0597617 0 255 255
-0.571689 0.966802 0.0598963 0 255 255
-0.572911 0.967452 0.0600198 0 255 255
-0.574128 0.968115 0.0601308 0 255 255
-0.57534 0.968791 0.060229 0 255 255
-0.57654 0.969477 0.0603122 0 255 255
-0.577747 0.970182 0.0603806 0 255 255
-0.578954 0.970904 0.0604322 0 255 255
-0.580164 0.971641 0.0604653 0 255 255
-0.58138 0.972394 0.0604784 0 255 255
-0.582605 0.97316 0.0604719 0 255 255
-0.58384 0.973938 0.0604456 0 255 255
-0.585082 0.974724 0.0604005 0 255 255
-0.586349 0.975525 0.0603369 0 255 255
-0.587626 0.976331 0.060257 0 255 255
-0.588931 0.977151 0.0601626 0 255 255
-0.590251 0.977975 0.0600572 0 255 255
-0.591602 0.978813 0.0599421 0 255 255
-0.592977 0.979661 0.0598205 0 255 255
-0.594377 0.98052 0.0596954 0 255 255
-0.595802 0.98139 0.0595698 0 255 255
-0.597253 0.982273 0.0594447 0 255 255
-0.598721 0.983161 0.0593217 0 255 255
-0.600224 0.984068 0.0591993 0 255 255
-0.601751 0.984986 0.0590773 0 255 255
-0.603302 0.985915 0.0589527 0 255 255
-0.604867 0.986851 0.0588239 0 255 255
-0.606466 0.987805 0.0586861 0 255 255
-0.608091 0.988774 0.0585361 0 255 255
-0.609741 0.98976 0.0583688 0 255 255
-0.611416 0.990766 0.0581791 0 255 255
-0.613115 0.991796 0.0579628 0 255 255
-0.614825 0.992848 0.0577171 0 255 255
-0.616564 0.993936 0.0574346 0 255 255
-0.618321 0.995059 0.0571141 0 255 255
-0.620093 0.996222 0.0567546 0 255 255
-0.621881 0.997427 0.0563573 0 255 255
-0.623683 0.998675 0.0559254 0 255 255
-0.625488 0.999962 0.0554663 0 255 255
-0.627317 1.0013 0.0549808 0 255 255
-0.631001 1.00407 0.0539767 0 255 255
-0.632856 1.00552 0.0534625 0 255 255
-0.634732 1.00702 0.0529569 0 255 255
-0.636617 1.00856 0.052474 0 255 255
-0.638509 1.01012 0.0520253 0 255 255
-0.64041 1.0117 0.0516202 0 255 255
-0.64231 1.0133 0.0512691 0 255 255
-0.644236 1.01493 0.0509748 0 255 255
-0.646178 1.01658 0.0507437 0 255 255
-0.64814 1.01824 0.0505797 0 255 255
-0.650121 1.01993 0.0504843 0 255 255
-0.652127 1.02163 0.0504567 0 255 255
-0.654159 1.02337 0.0504942 0 255 255
-0.656221 1.02512 0.0505934 0 255 255
-0.658316 1.02691 0.0507495 0 255 255
-0.660445 1.02872 0.050959 0 255 255
-0.662594 1.03055 0.0512186 0 255 255
-0.664776 1.03242 0.0515306 0 255 255
-0.667 1.03432 0.0519005 0 255 255
-0.669251 1.03626 0.0523328 0 255 255
-0.671528 1.03821 0.0528336 0 255 255
-0.673832 1.04018 0.0534069 0 255 255
-0.676152 1.04213 0.0540502 0 255 255
-0.678523 1.04409 0.0547708 0 255 255
-0.680937 1.04603 0.0555636 0 255 255
-0.683395 1.04793 0.0564266 0 255 255
-0.685901 1.04981 0.0573576 0 255 255
-0.68844 1.05162 0.0583464 0 255 255
-0.691045 1.05339 0.0593982 0 255 255
-0.693702 1.05509 0.0604986 0 255 255
-0.696409 1.05673 0.0616383 0 255 255
-0.699141 1.0583 0.0627992 0 255 255
-0.701922 1.05981 0.0639849 0 255 255
-0.704726 1.06126 0.0651733 0 255 255
-0.707545 1.06265 0.0663508 0 255 255
-0.710367 1.06398 0.0675022 0 255 255
-0.71318 1.06526 0.0686152 0 255 255
-0.715951 1.06647 0.0696719 0 255 255
-0.718702 1.06763 0.0706782 0 255 255
-0.7214 1.06873 0.0716224 0 255 255
-0.724034 1.06978 0.0725021 0 255 255
-0.726597 1.07078 0.0733181 0 255 255
-0.729068 1.07173 0.0740692 0 255 255
-0.731477 1.07264 0.0747718 0 255 255
-0.733812 1.07351 0.0754288 0 255 255
-0.736078 1.07434 0.0760481 0 255 255
-0.738282 1.07514 0.0766399 0 255 255
-0.740434 1.07591 0.0772139 0 255 255
-0.742529 1.07664 0.0777774 0 255 255
-0.744605 1.07735 0.0783474 0 255 255
-0.74666 1.07801 0.0789288 0 255 255
-0.74869 1.07864 0.0795266 0 255 255
-0.750731 1.07924 0.0801554 0 255 255
-0.752778 1.0798 0.0808173 0 255 255
-0.754851 1.08032 0.0815201 0 255 255
-0.756918 1.0808 0.0822543 0 255 255
-0.759022 1.08124 0.0830338 0 255 255
-0.761154 1.08163 0.083854 0 255 255
-0.763316 1.08199 0.0847138 0 255 255
-0.765494 1.08232 0.0856064 0 255 255
-0.767713 1.08261 0.0865384 0 255 255
-0.769957 1.08287 0.0874978 0 255 255
-0.772222 1.08311 0.0884767 0 255 255
-0.774505 1.08332 0.0894661 0 255 255
-0.776785 1.08352 0.0904511 0 255 255
-0.779085 1.0837 0.0914344 0 255 255
-0.781383 1.08387 0.0924013 0 255 255
-0.783674 1.08403 0.0933419 0 255 255
-0.785954 1.08418 0.0942471 0 255 255
-0.788203 1.08432 0.0951032 0 255 255
-0.790449 1.08446 0.0959136 0 255 255
-0.792673 1.0846 0.096666 0 255 255
-0.794862 1.08474 0.0973517 0 255 255
-0.79704 1.08488 0.0979755 0 255 255
-0.799195 1.08503 0.0985295 0 255 255
-0.801328 1.08519 0.0990124 0 255 255
-0.803441 1.08536 0.0994263 0 255 255
-0.805537 1.08554 0.0997767 0 255 255
-0.807621 1.08573 0.100068 0 255 255
-0.809682 1.08594 0.1003 0 255 255
-0.811748 1.08616 0.100483 0 255 255
-0.813811 1.08639 0.10062 0 255 255
-0.815874 1.08664 0.100719 0 255 255
-0.817941 1.0869 0.100788 0 255 255
-0.820014 1.08717 0.100834 0 255 255
-0.82208 1.08745 0.100869 0 255 255
-0.824165 1.08773 0.1009 0 255 255
-0.826255 1.08802 0.100938 0 255 255
-0.828349 1.08832 0.10099 0 255 255
-0.830446 1.08863 0.101063 0 255 255
-0.832532 1.08894 0.101162 0 255 255
-0.834644 1.08927 0.10129 0 255 255
-0.836742 1.08961 0.101448 0 255 255
-0.838836 1.08996 0.101635 0 255 255
-0.840925 1.09033 0.101846 0 255 255
-0.843008 1.09071 0.102078 0 255 255
-0.845084 1.09111 0.102319 0 255 255
-0.84714 1.09151 0.102559 0 255 255
-0.849199 1.09194 0.102791 0 255 255
-0.851249 1.09239 0.103002 0 255 255
-0.853289 1.09286 0.103181 0 255 255
-0.855305 1.09335 0.103318 0 255 255
-0.857322 1.09388 0.103405 0 255 255
-0.859327 1.09445 0.103434 0 255 255
-0.861319 1.09505 0.103398 0 255 255
-0.863284 1.09571 0.103293 0 255 255
-0.865246 1.09641 0.103113 0 255 255
-0.867189 1.09718 0.102856 0 255 255
-0.869112 1.098 0.102524 0 255 255
-0.871013 1.09889 0.102118 0 255 255
-0.872891 1.09983 0.101644 0 255 255
-0.874743 1.10083 0.101109 0 255 255
-0.87657 1.10188 0.100521 0 255 255
-0.878353 1.10297 0.099897 0 255 255
-0.880139 1.10411 0.0992328 0 255 255
-0.88191 1.10529 0.0985471 0 255 255
-0.88367 1.10649 0.0978523 0 255 255
-0.885423 1.10772 0.0971612 0 255 255
-0.887165 1.10896 0.0964906 0 255 255
-0.88892 1.11021 0.0958438 0 255 255
-0.890679 1.11147 0.0952336 0 255 255
-0.892434 1.11273 0.0946698 0 255 255
-0.894209 1.114 0.0941498 0 255 255
-0.895994 1.11527 0.0936794 0 255 255
-0.897788 1.11654 0.0932594 0 255 255
-0.899587 1.11781 0.0928881 0 255 255
-0.901388 1.11908 0.0925635 0 255 255
-0.903174 1.12036 0.0922836 0 255 255
-0.904962 1.12164 0.09204 0 255 255
-0.906735 1.12295 0.0918294 0 255 255
-0.908489 1.12428 0.0916467 0 255 255
-0.91022 1.12563 0.0914865 0 255 255
-0.911926 1.12701 0.0913444 0 255 255
-0.913592 1.12842 0.0912177 0 255 255
-0.915228 1.12987 0.0911011 0 255 255
-0.916843 1.13136 0.0909907 0 255 255
-0.918426 1.1329 0.090884 0 255 255
-0.919981 1.13448 0.0907781 0 255 255
-0.92151 1.13611 0.090672 0 255 255
-0.923016 1.13778 0.0905646 0 255 255
-0.924503 1.1395 0.0904575 0 255 255
-0.925973 1.14126 0.0903533 0 255 255
-0.927425 1.14306 0.090257 0 255 255
-0.928885 1.14491 0.0901727 0 255 255
-0.930351 1.14679 0.0901083 0 255 255
-0.931831 1.14871 0.0900741 0 255 255
-0.933329 1.15066 0.090083 0 255 255
-0.934838 1.15263 0.0901499 0 255 255
-0.936373 1.15461 0.0902902 0 255 255
-0.937916 1.1566 0.0905177 0 255 255
-0.939458 1.15857 0.0908401 0 255 255
-0.940991 1.16052 0.0912612 0 255 255
-0.942501 1.16242 0.0917815 0 255 255
-0.944007 1.16431 0.0924145 0 255 255
-0.945467 1.16612 0.0931517 0 255 255
-0.946899 1.16788 0.0940096 0 255 255
-0.94829 1.16957 0.0949858 0 255 255
-0.949633 1.17118 0.0960768 0 255 255
-0.950911 1.1727 0.0972643 0 255 255
-0.952141 1.17416 0.0985478 0 255 255
-0.95332 1.17554 0.0999019 0 255 255
-0.95446 1.17687 0.101304 0 255 255
-0.955565 1.17813 0.102722 0 255 255
-0.956661 1.17934 0.104149 0 255 255
-0.957754 1.1805 0.105549 0 255 255
-0.958857 1.18161 0.106898 0 255 255
-0.959982 1.18266 0.108174 0 255 255
-0.96114 1.18366 0.109354 0 255 255
-0.962334 1.18461 0.110419 0 255 255
-0.963582 1.18551 0.111372 0 255 255
-0.964881 1.18638 0.1122 0 255 255
-0.966227 1.18722 0.112903 0 255 255
-0.967618 1.18804 0.113488 0 255 255
-0.969039 1.18884 0.113963 0 255 255
-0.970503 1.18965 0.114345 0 255 255
-0.971993 1.19045 0.114647 0 255 255
-0.973502 1.19127 0.114885 0 255 255
-0.975022 1.19208 0.115075 0 255 255
-0.976545 1.1929 0.115234 0 255 255
-0.978055 1.19371 0.115379 0 255 255
-0.979568 1.19451 0.115532 0 255 255
-0.98107 1.19529 0.115711 0 255 255
-0.982555 1.19603 0.115937 0 255 255
-0.984012 1.19673 0.116224 0 255 255
-0.986901 1.19804 0.116957 0 255 255
-0.988302 1.19861 0.117499 0 255 255
-0.989685 1.19913 0.118136 0 255 255
-0.991051 1.1996 0.118865 0 255 255
-0.992398 1.20003 0.119677 0 255 255
-0.993747 1.20042 0.120574 0 255 255
-0.995095 1.20077 0.12154 0 255 255
-0.996448 1.20109 0.122564 0 255 255
-0.997804 1.20139 0.123625 0 255 255
-0.999191 1.20167 0.124728 0 255 255
-1.00059 1.20192 0.125838 0 255 255
-1.00201 1.20216 0.126947 0 255 255
-1.00345 1.20238 0.128042 0 255 255
-1.00491 1.20258 0.129102 0 255 255
-1.00639 1.20276 0.130122 0 255 255
-1.00791 1.20294 0.131098 0 255 255
-1.00945 1.2031 0.132016 0 255 255
-1.01101 1.20325 0.132871 0 255 255
-1.0126 1.2034 0.133658 0 255 255
-1.0142 1.20354 0.134369 0 255 255
-1.01582 1.20367 0.135011 0 255 255
-1.01747 1.2038 0.135579 0 255 255
-1.01913 1.20393 0.136073 0 255 255
-1.0208 1.20406 0.136496 0 255 255
-1.02247 1.20419 0.136849 0 255 255
-1.02416 1.20432 0.137142 0 255 255
-1.02585 1.20446 0.137378 0 255 255
-1.02754 1.2046 0.137561 0 255 255
-1.02922 1.20475 0.137693 0 255 255
-1.03091 1.2049 0.13778 0 255 255
-1.03261 1.20507 0.137827 0 255 255
-1.0343 1.20524 0.137839 0 255 255
-1.036 1.20541 0.137821 0 255 255
-1.0377 1.2056 0.137779 0 255 255
-1.0394 1.20579 0.137716 0 255 255
-1.0411 1.20598 0.13764 0 255 255
-1.04281 1.20618 0.137553 0 255 255
-1.04453 1.20638 0.137461 0 255 255
-1.04626 1.20658 0.137364 0 255 255
-1.048 1.20679 0.137266 0 255 255
-1.04975 1.20701 0.137167 0 255 255
-1.0515 1.20723 0.137066 0 255 255
-1.05328 1.20746 0.13696 0 255 255
-1.05507 1.2077 0.136849 0 255 255
-1.05687 1.20795 0.13673 0 255 255
-1.05869 1.20822 0.136599 0 255 255
-1.06051 1.2085 0.136458 0 255 255
-1.06235 1.2088 0.136301 0 255 255
-1.06421 1.20912 0.136129 0 255 255
-1.06609 1.20946 0.135941 0 255 255
-1.06798 1.20983 0.135736 0 255 255
-1.06989 1.21022 0.135513 0 255 255
-1.07181 1.21064 0.135271 0 255 255
-1.07375 1.21107 0.13501 0 255 255
-1.0757 1.21153 0.134729 0 255 255
-1.07768 1.212 0.134427 0 255 255
-1.07966 1.2125 0.134106 0 255 255
-1.08167 1.21301 0.13376 0 255 255
-1.08371 1.21355 0.133392 0 255 255
-1.08578 1.2141 0.132999 0 255 255
-1.08788 1.21468 0.132581 0 255 255
-1.09001 1.21528 0.132136 0 255 255
-1.09215 1.2159 0.131669 0 255 255
-1.09434 1.21655 0.131174 0 255 255
-1.09655 1.21722 0.130655 0 255 255
-1.09879 1.21793 0.130117 0 255 255
-1.10105 1.21866 0.129564 0 255 255
-1.10332 1.21943 0.129004 0 255 255
-1.10562 1.22023 0.128438 0 255 255
-1.10793 1.22107 0.127876 0 255 255
-1.11023 1.22194 0.127332 0 255 255
-1.11258 1.22286 0.126803 0 255 255
-1.11491 1.22382 0.12631 0 255 255
-1.11725 1.22482 0.12586 0 255 255
-1.1196 1.22586 0.125463 0 255 255
-1.12195 1.22694 0.125126 0 255 255
-1.12431 1.22805 0.124856 0 255 255
-1.12903 1.23033 0.124459 0 255 255
-1.13143 1.23153 0.124404 0 255 255
-1.13384 1.23275 0.124419 0 255 255
-1.13628 1.23399 0.124498 0 255 255
-1.13873 1.23525 0.124633 0 255 255
-1.14122 1.23655 0.124817 0 255 255
-1.14373 1.23787 0.125039 0 255 255
-1.14629 1.23924 0.125292 0 255 255
-1.14888 1.24065 0.125567 0 255 255
-1.15151 1.24211 0.125857 0 255 255
-1.15415 1.2436 0.126157 0 255 255
-1.15683 1.24515 0.126472 0 255 255
-1.15952 1.24676 0.126805 0 255 255
-1.16222 1.24841 0.127164 0 255 255
-1.16493 1.2501 0.127562 0 255 255
-1.16764 1.25182 0.128008 0 255 255
-1.17036 1.25356 0.128513 0 255 255
-1.17307 1.25529 0.129079 0 255 255
-1.17582 1.25702 0.129716 0 255 255
-1.17859 1.25872 0.130423 0 255 255
-1.18138 1.26037 0.131194 0 255 255
-1.18421 1.26197 0.132037 0 255 255
-1.18709 1.2635 0.132941 0 255 255
-1.19 1.26495 0.133901 0 255 255
-1.19295 1.2663 0.134905 0 255 255
-1.19594 1.26755 0.135944 0 255 255
-1.19895 1.2687 0.136999 0 255 255
-1.20199 1.26975 0.13807 0 255 255
-1.20504 1.2707 0.13914 0 255 255
-1.20809 1.27157 0.140197 0 255 255
-1.21113 1.27235 0.14123 0 255 255
-1.21414 1.27307 0.142231 0 255 255
-1.21712 1.27372 0.143194 0 255 255
-1.22003 1.27431 0.144112 0 255 255
-1.22291 1.27486 0.145001 0 255 255
-1.22569 1.27537 0.145845 0 255 255
-1.22839 1.27584 0.146653 0 255 255
-1.23098 1.27626 0.147426 0 255 255
-1.23351 1.27666 0.14818 0 255 255
-1.23595 1.27703 0.148917 0 255 255
-1.23831 1.27736 0.149645 0 255 255
-1.24059 1.27767 0.150368 0 255 255
-1.24283 1.27796 0.151103 0 255 255
-1.24502 1.27822 0.151852 0 255 255
-1.24718 1.27846 0.15262 0 255 255
-1.24932 1.27868 0.153412 0 255 255
-1.25145 1.27887 0.154227 0 255 255
-1.2536 1.27905 0.155075 0 255 255
-1.25576 1.27921 0.155953 0 255 255
-1.25796 1.27934 0.156861 0 255 255
-1.2602 1.27945 0.157797 0 255 255
-1.26249 1.27953 0.158761 0 255 255
-1.26483 1.27959 0.15975 0 255 255
-1.26721 1.27963 0.160752 0 255 255
-1.26967 1.27964 0.161776 0 255 255
-1.27217 1.27963 0.162809 0 255 255
-1.27472 1.2796 0.163843 0 255 255
-1.2773 1.27956 0.164865 0 255 255
-1.27992 1.27951 0.165878 0 255 255
-1.28258 1.27945 0.166869 0 255 255
-1.28525 1.27939 0.167831 0 255 255
-1.28791 1.27932 0.168748 0 255 255
-1.29059 1.27926 0.169628 0 255 255
-1.29326 1.27919 0.17046 0 255 255
-1.29591 1.27913 0.171241 0 255 255
-1.29854 1.27907 0.171968 0 255 255
-1.30114 1.27901 0.172639 0 255 255
-1.30368 1.27897 0.173249 0 255 255
-1.30621 1.27893 0.173804 0 255 255
-1.3087 1.2789 0.174302 0 255 255
-1.31114 1.27887 0.174745 0 255 255
-1.31354 1.27886 0.175136 0 255 255
-1.31588 1.27885 0.175476 0 255 255
-1.31819 1.27885 0.175771 0 255 255
-1.32049 1.27885 0.176029 0 255 255
-1.32274 1.27887 0.176242 0 255 255
-1.32497 1.27889 0.17642 0 255 255
-1.32719 1.27892 0.176562 0 255 255
-1.32937 1.27895 0.176672 0 255 255
-1.33156 1.27899 0.176756 0 255 255
-1.33593 1.27908 0.176873 0 255 255
-1.3381 1.27914 0.176888 0 255 255
-1.34026 1.2792 0.176888 0 255 255
-1.34242 1.27928 0.176874 0 255 255
-1.34459 1.27936 0.176848 0 255 255
-1.34676 1.27946 0.17681 0 255 255
-1.34892 1.27957 0.17676 0 255 255
-1.35107 1.27969 0.1767 0 255 255
-1.35323 1.27983 0.176626 0 255 255
-1.35538 1.27999 0.176539 0 255 255
-1.35752 1.28016 0.176437 0 255 255
-1.35966 1.28035 0.17632 0 255 255
-1.36177 1.28056 0.176189 0 255 255
-1.36389 1.28079 0.17604 0 255 255
-1.36599 1.28104 0.175876 0 255 255
-1.36809 1.2813 0.175697 0 255 255
-1.37017 1.28159 0.175504 0 255 255
-1.37225 1.2819 0.175298 0 255 255
-1.3743 1.28224 0.175082 0 255 255
-1.37636 1.2826 0.174855 0 255 255
-1.37841 1.28298 0.17462 0 255 255
-1.38046 1.2834 0.17438 0 255 255
-1.3825 1.28384 0.174137 0 255 255
-1.38453 1.2843 0.173894 0 255 255
-1.38657 1.2848 0.173647 0 255 255
-1.3886 1.28532 0.173397 0 255 255
-1.39065 1.28586 0.173141 0 255 255
-1.39268 1.28643 0.17288 0 255 255
-1.39473 1.28702 0.172607 0 255 255
-1.39678 1.28762 0.172321 0 255 255
-1.39885 1.28825 0.17202 0 255 255
-1.40092 1.28889 0.171704 0 255 255
-1.403 1.28954 0.171371 0 255 255
-1.40508 1.29022 0.171023 0 255 255
-1.40716 1.2909 0.170662 0 255 255
-1.40928 1.29161 0.170286 0 255 255
-1.41138 1.29233 0.169904 0 255 255
-1.41349 1.29307 0.169519 0 255 255
-1.41559 1.29383 0.169137 0 255 255
-1.41767 1.2946 0.168766 0 255 255
-1.41975 1.2954 0.168409 0 255 255
-1.42182 1.29621 0.168075 0 255 255
-1.42387 1.29703 0.167772 0 255 255
-1.4259 1.29787 0.167505 0 255 255
-1.42789 1.29872 0.167284 0 255 255
-1.42987 1.29959 0.167108 0 255 255
-1.43183 1.30048 0.166982 0 255 255
-1.43376 1.3014 0.166911 0 255 255
-1.43565 1.30232 0.166894 0 255 255
-1.43753 1.30327 0.166928 0 255 255
-1.43938 1.30425 0.167011 0 255 255
-1.44121 1.30526 0.16714 0 255 255
-1.44301 1.30629 0.167308 0 255 255
-1.44481 1.30735 0.167514 0 255 255
-1.44659 1.30844 0.167755 0 255 255
-1.44838 1.30957 0.168028 0 255 255
-1.45016 1.31072 0.168333 0 255 255
-1.45195 1.31191 0.168669 0 255 255
-1.45375 1.31313 0.16904 0 255 255
-1.45553 1.31436 0.169443 0 255 255
-1.45732 1.31562 0.169887 0 255 255
-1.4591 1.31689 0.170368 0 255 255
-1.46086 1.31817 0.170883 0 255 255
-1.46259 1.31945 0.171426 0 255 255
-1.46429 1.32073 0.171993 0 255 255
-1.46594 1.32198 0.172572 0 255 255
-1.46759 1.32321 0.173166 0 255 255
-1.46921 1.3244 0.173768 0 255 255
-1.47082 1.32553 0.174382 0 255 255
-1.47241 1.32659 0.175005 0 255 255
-1.474 1.32758 0.175646 0 255 255
-1.4756 1.32848 0.176303 0 255 255
-1.47724 1.32929 0.176974 0 255 255
-1.4789 1.33 0.177656 0 255 255
-1.48063 1.33063 0.178358 0 255 255
-1.48241 1.33116 0.179066 0 255 255
-1.48427 1.3316 0.179784 0 255 255
-1.48619 1.33196 0.180506 0 255 255
-1.48819 1.33225 0.181243 0 255 255
-1.49027 1.33247 0.181989 0 255 255
-1.49241 1.33263 0.182747 0 255 255
-1.49461 1.33274 0.183514 0 255 255
-1.49687 1.3328 0.184305 0 255 255
-1.49918 1.33282 0.18512 0 255 255
-1.50153 1.33278 0.185964 0 255 255
-1.50389 1.3327 0.186836 0 255 255
-1.50628 1.33257 0.18775 0 255 255
-1.50867 1.33239 0.188702 0 255 255
-1.51106 1.33217 0.189693 0 255 255
-1.51344 1.33191 0.190724 0 255 255
-1.5158 1.3316 0.191793 0 255 255
-1.51812 1.33127 0.192892 0 255 255
-1.52043 1.33091 0.194031 0 255 255
-1.52271 1.33052 0.195197 0 255 255
-1.52497 1.3301 0.196382 0 255 255
-1.52721 1.32966 0.19758 0 255 255
-1.52942 1.3292 0.198784 0 255 255
-1.53162 1.32873 0.199988 0 255 255
-1.53379 1.32824 0.201178 0 255 255
-1.53597 1.32773 0.202362 0 255 255
-1.53815 1.32721 0.203527 0 255 255
-1.54033 1.32668 0.204657 0 255 255
-1.54253 1.32614 0.205762 0 255 255
-1.54476 1.3256 0.206826 0 255 255
-1.54701 1.32504 0.207844 0 255 255
-1.54929 1.32448 0.208808 0 255 255
-1.55159 1.32391 0.209709 0 255 255
-1.55393 1.32334 0.210554 0 255 255
-1.55631 1.32275 0.211331 0 255 255
-1.55873 1.32215 0.212038 0 255 255
-1.56119 1.32154 0.212674 0 255 255
-1.56369 1.32091 0.213237 0 255 255
-1.56622 1.32028 0.213731 0 255 255
-1.56879 1.31963 0.214156 0 255 255
-1.57139 1.31898 0.214515 0 255 255
-1.57399 1.31832 0.214808 0 255 255
-1.57664 1.31765 0.215049 0 255 255
-1.57932 1.31698 0.215237 0 255 255
-1.58199 1.31631 0.215376 0 255 255
-1.5847 1.31564 0.215475 0 255 255
-1.58742 1.31497 0.215539 0 255 255
-1.59014 1.3143 0.215575 0 255 255
-1.59286 1.31363 0.215588 0 255 255
-1.5956 1.31297 0.215586 0 255 255
-1.59835 1.3123 0.215573 0 255 255
-1.6011 1.31163 0.215554 0 255 255
-1.60387 1.31096 0.215532 0 255 255
-1.60663 1.31029 0.215508 0 255 255
-1.60943 1.30961 0.215485 0 255 255
-1.61224 1.30893 0.215459 0 255 255
-1.61508 1.30825 0.215432 0 255 255
-1.61793 1.30757 0.215401 0 255 255
-1.62082 1.3069 0.215362 0 255 255
-1.62371 1.30623 0.215314 0 255 255
-1.62664 1.30556 0.215253 0 255 255
-1.62961 1.30491 0.215176 0 255 255
-1.63261 1.30426 0.215079 0 255 255
-1.63563 1.30363 0.21496 0 255 255
-1.63868 1.30302 0.214815 0 255 255
-1.64175 1.30243 0.214644 0 255 255
-1.64485 1.30185 0.214441 0 255 255
-1.64799 1.3013 0.214206 0 255 255
-1.65113 1.30077 0.213941 0 255 255
-1.65432 1.30027 0.213641 0 255 255
-1.66074 1.29931 0.212977 0 255 255
-1.66398 1.29889 0.212586 0 255 255
-1.66725 1.29849 0.212169 0 255 255
-1.67051 1.29813 0.211733 0 255 255
-1.67381 1.29778 0.211277 0 255 255
-1.67712 1.29746 0.210807 0 255 255
-1.68044 1.29716 0.210328 0 255 255
-1.68378 1.29688 0.209843 0 255 255
-1.68714 1.29661 0.209356 0 255 255
-1.69049 1.29637 0.208875 0 255 255
-1.69386 1.29613 0.208402 0 255 255
-1.69728 1.29591 0.207934 0 255 255
-1.70073 1.29569 0.207482 0 255 255
-1.70419 1.2955 0.207051 0 255 255
-1.70765 1.29532 0.206644 0 255 255
-1.71115 1.29515 0.206258 0 255 255
-1.71468 1.295 0.205899 0 255 255
-1.71824 1.29487 0.205571 0 255 255
-1.7218 1.29477 0.20528 0 255 255
-1.7254 1.29469 0.205024 0 255 255
-1.72903 1.29463 0.20481 0 255 255
-1.73268 1.2946 0.204639 0 255 255
-1.73634 1.2946 0.204516 0 255 255
-1.74001 1.29463 0.204441 0 255 255
-1.74371 1.29469 0.204414 0 255 255
-1.74743 1.29478 0.204434 0 255 255
-1.75117 1.2949 0.204498 0 255 255
-1.75492 1.29506 0.204603 0 255 255
-1.75869 1.29525 0.204746 0 255 255
-1.76245 1.29548 0.20492 0 255 255
-1.76625 1.29574 0.205123 0 255 255
-1.77007 1.29605 0.20535 0 255 255
-1.77393 1.2964 0.205599 0 255 255
-1.77779 1.29678 0.205868 0 255 255
-1.78171 1.29719 0.206164 0 255 255
-1.78563 1.29764 0.206491 0 255 255
-1.78962 1.29812 0.206864 0 255 255
-1.79365 1.29862 0.207295 0 255 255
-1.79771 1.29913 0.2078 0 255 255
-1.80182 1.29963 0.208389 0 255 255
-1.80596 1.30011 0.209066 0 255 255
-1.81017 1.30054 0.209847 0 255 255
-1.81445 1.3009 0.21073 0 255 255
-1.81879 1.30117 0.211717 0 255 255
-1.8232 1.30133 0.212807 0 255 255
-1.82767 1.30136 0.213985 0 255 255
-1.83225 1.30125 0.215255 0 255 255
-1.8369 1.301 0.216594 0 255 255
-1.84158 1.30062 0.217978 0 255 255
-1.84637 1.30011 0.219415 0 255 255
-1.85114 1.29951 0.220848 0 255 255
-1.85596 1.29882 0.222282 0 255 255
-1.86079 1.29805 0.223685 0 255 255
-1.86561 1.29723 0.225039 0 255 255
-1.87041 1.29635 0.226326 0 255 255
-1.87514 1.29544 0.227527 0 255 255
-1.87984 1.2945 0.228649 0 255 255
-1.88448 1.29353 0.229682 0 255 255
-1.88905 1.29256 0.230628 0 255 255
-1.89354 1.29158 0.23149 0 255 255
-1.89793 1.29062 0.232272 0 255 255
-1.90228 1.28965 0.232993 0 255 255
-1.90658 1.2887 0.233661 0 255 255
-1.91083 1.28776 0.234289 0 255 255
-1.91504 1.28684 0.234892 0 255 255
-1.9192 1.28594 0.235479 0 255 255
-1.92337 1.28505 0.236071 0 255 255
-1.92755 1.28415 0.236679 0 255 255
-1.93173 1.28326 0.237314 0 255 255
-1.93593 1.28234 0.237985 0 255 255
-1.94014 1.28141 0.238697 0 255 255
-1.94441 1.28044 0.239464 0 255 255
-1.94872 1.27942 0.240285 0 255 255
-1.95307 1.27835 0.241161 0 255 255
-1.95747 1.27722 0.242093 0 255 255
-1.9619 1.27605 0.243071 0 255 255
-1.96639 1.27481 0.244101 0 255 255
-1.97092 1.27352 0.245172 0 255 255
-1.97549 1.27219 0.246274 0 255 255
-1.9801 1.27082 0.2474 0 255 255
-1.98472 1.26942 0.248538 0 255 255
-1.98937 1.26799 0.249678 0 255 255
-1.99403 1.26654 0.250812 0 255 255
-1.99867 1.26509 0.251922 0 255 255
-2.00334 1.26361 0.253013 0 255 255
-2.008 1.26213 0.254073 0 255 255
-2.01266 1.26064 0.255095 0 255 255
-2.01727 1.25916 0.256068 0 255 255
-2.0219 1.25766 0.257003 0 255 255
-2.02648 1.25618 0.257885 0 255 255
-2.03108 1.2547 0.258726 0 255 255
-2.03566 1.25321 0.25952 0 255 255
-2.04023 1.25172 0.260268 0 255 255
-2.04479 1.25023 0.260971 0 255 255
-2.04934 1.24874 0.261633 0 255 255
-2.05389 1.24724 0.262255 0 255 255
-2.05845 1.24573 0.262837 0 255 255
-2.06297 1.24422 0.263378 0 255 255
-2.06754 1.24269 0.263886 0 255 255
-2.07212 1.24114 0.264361 0 255 255
-2.07671 1.23958 0.264801 0 255 255
-2.08132 1.238 0.265208 0 255 255
-2.08597 1.23638 0.265584 0 255 255
-2.09062 1.23476 0.265925 0 255 255
-2.09527 1.23312 0.266237 0 255 255
-2.09994 1.23147 0.266521 0 255 255
-2.10463 1.2298 0.266777 0 255 255
-2.10933 1.22813 0.267009 0 255 255
-2.11404 1.22645 0.267217 0 255 255
-2.11875 1.22476 0.267405 0 255 255
-2.12348 1.22308 0.267576 0 255 255
-2.12821 1.2214 0.267731 0 255 255
-2.13292 1.21974 0.267872 0 255 255
-2.13767 1.21807 0.268002 0 255 255
-2.1424 1.21643 0.268122 0 255 255
-2.14716 1.21478 0.268237 0 255 255
-2.15193 1.21314 0.268351 0 255 255
-2.1567 1.2115 0.268466 0 255 255
-2.16147 1.20988 0.268587 0 255 255
-2.16622 1.20827 0.268713 0 255 255
-2.171 1.20665 0.268845 0 255 255
-2.17579 1.20504 0.268978 0 255 255
-2.18058 1.20344 0.269107 0 255 255
-2.18537 1.20183 0.269225 0 255 255
-2.19015 1.20024 0.269327 0 255 255
-2.1949 1.19866 0.269406 0 255 255
-2.19968 1.19709 0.269456 0 255 255
-2.20444 1.19554 0.269474 0 255 255
-2.2092 1.19402 0.269455 0 255 255
-2.21394 1.19252 0.269395 0 255 255
-2.21868 1.19106 0.269291 0 255 255
-2.22338 1.18965 0.269145 0 255 255
-2.22811 1.18827 0.268956 0 255 255
-2.23283 1.18693 0.268726 0 255 255
-2.23756 1.18564 0.268462 0 255 255
-2.24228 1.18438 0.268166 0 255 255
-2.24697 1.18316 0.267846 0 255 255
-2.25169 1.18197 0.267506 0 255 255
-2.25641 1.18081 0.267152 0 255 255
-2.26114 1.17966 0.266792 0 255 255
-2.26585 1.17854 0.266436 0 255 255
-2.2706 1.17742 0.266086 0 255 255
-2.27535 1.17631 0.26575 0 255 255
-2.28013 1.1752 0.265435 0 255 255
-2.28489 1.1741 0.265147 0 255 255
-2.28967 1.173 0.264888 0 255 255
-2.2945 1.17189 0.264658 0 255 255
-2.29935 1.17077 0.264461 0 255 255
-2.30423 1.16964 0.264297 0 255 255
-2.30913 1.16852 0.264165 0 255 255
-2.31403 1.1674 0.264062 0 255 255
-2.31898 1.16628 0.263983 0 255 255
-2.32393 1.16518 0.263925 0 255 255
-2.32893 1.16407 0.263881 0 255 255
-2.33396 1.16298 0.263848 0 255 255
-2.33898 1.16192 0.26382 0 255 255
-2.34407 1.16086 0.263795 0 255 255
-2.34918 1.15983 0.263768 0 255 255
-2.35432 1.15883 0.263739 0 255 255
-2.35947 1.15785 0.263706 0 255 255
-2.36468 1.1569 0.26367 0 255 255
-2.36993 1.15597 0.26363 0 255 255
-2.37522 1.15508 0.263589 0 255 255
-2.38055 1.15422 0.263548 0 255 255
-2.38593 1.15338 0.263507 0 255 255
-2.39132 1.15258 0.263469 0 255 255
-2.3968 1.15179 0.26344 0 255 255
-2.40233 1.15102 0.263423 0 255 255
-2.40792 1.15027 0.263423 0 255 255
-2.41355 1.14952 0.263447 0 255 255
