ply
format ascii 1.0
element vertex 1302
property float x
property float y
property float z
property uchar red
property uchar green
property uchar blue
element face 0
property list uchar int vertex_indices
end_header
-0.995377 -75.1191 -0.0562113 0 200 0
-0.99806 -75.1149 -0.056932 0 200 0
-1.00074 -75.1108 -0.0576526 0 200 0
-1.00343 -75.1066 -0.0583733 0 200 0
-1.00611 -75.1024 -0.0590939 0 200 0
-1.0088 -75.0983 -0.0598146 0 200 0
-1.01148 -75.0941 -0.0605352 0 200 0
-1.01416 -75.09 -0.0612559 0 200 0
-1.01685 -75.0858 -0.0619766 0 200 0
-1.01953 -75.0817 -0.0626972 0 200 0
-1.02221 -75.0775 -0.0634179 0 200 0
-1.0249 -75.0733 -0.0641385 0 200 0
-1.02758 -75.0692 -0.0648592 0 200 0
-1.03027 -75.065 -0.0655798 0 200 0
-1.03295 -75.0609 -0.0663005 0 200 0
-1.03563 -75.0567 -0.0670212 0 200 0
-1.03832 -75.0526 -0.0677418 0 200 0
-1.041 -75.0484 -0.0684625 0 200 0
-1.04368 -75.0442 -0.0691831 0 200 0
-1.04637 -75.0401 -0.0699038 0 200 0
-1.04905 -75.0359 -0.0706244 0 200 0
-1.05173 -75.0318 -0.0713451 0 200 0
-2.13078 -76.7249 0 0 200 0
-2.13244 -76.7202 -0.000564228 0 200 0
-2.1341 -76.7156 -0.00112846 0 200 0
-2.13576 -76.7109 -0.00169268 0 200 0
-2.13742 -76.7062 -0.00225691 0 200 0
-2.13908 -76.7015 -0.00282114 0 200 0
-2.14074 -76.6968 -0.00338537 0 200 0
-2.1424 -76.6921 -0.0039496 0 200 0
-2.14406 -76.6875 -0.00451382 0 200 0
-2.14572 -76.6828 -0.00507805 0 200 0
-2.14738 -76.6781 -0.00564228 0 200 0
-2.14904 -76.6734 -0.00620651 0 200 0
-2.1507 -76.6687 -0.00677074 0 200 0
-2.15236 -76.664 -0.00733496 0 200 0
-2.15402 -76.6594 -0.00789919 0 200 0
-2.15568 -76.6547 -0.00846342 0 200 0
-2.15734 -76.65 -0.00902765 0 200 0
-2.15899 -76.6453 -0.00959188 0 200 0
-2.16065 -76.6406 -0.0101561 0 200 0
-2.16231 -76.6359 -0.0107203 0 200 0
-2.16397 -76.6313 -0.0112846 0 200 0
-2.16563 -76.6266 -0.0118488 0 200 0
-2.16729 -76.6219 -0.012413 0 200 0
-2.16895 -76.6172 -0.0129772 0 200 0
-2.17061 -76.6125 -0.0135415 0 200 0
-2.17227 -76.6078 -0.0141057 0 200 0
-2.17393 -76.6032 -0.0146699 0 200 0
-2.17559 -76.5985 -0.0152342 0 200 0
-2.17725 -76.5938 -0.0157984 0 200 0
-2.17891 -76.5891 -0.0163626 0 200 0
-2.18057 -76.5844 -0.0169268 0 200 0
-2.18223 -76.5798 -0.0174911 0 200 0
-2.18389 -76.5751 -0.0180553 0 200 0
-2.18555 -76.5704 -0.0186195 0 200 0
-2.18721 -76.5657 -0.0191838 0 200 0
-2.18887 -76.561 -0.019748 0 200 0
-2.19053 -76.5563 -0.0203122 0 200 0
-2.19219 -76.5517 -0.0208764 0 200 0
-2.19385 -76.547 -0.0214407 0 200 0
-2.19551 -76.5423 -0.0220049 0 200 0
-2.19717 -76.5376 -0.0225691 0 200 0
-2.19883 -76.5329 -0.0231334 0 200 0
-2.20049 -76.5282 -0.0236976 0 200 0
-2.20215 -76.5236 -0.0242618 0 200 0
-2.20381 -76.5189 -0.024826 0 200 0
-2.20547 -76.5142 -0.0253903 0 200 0
-2.20713 -76.5095 -0.0259545 0 200 0
-2.20879 -76.5048 -0.0265187 0 200 0
-2.21045 -76.5002 -0.0270829 0 200 0
-2.21211 -76.4955 -0.0276472 0 200 0
-2.21377 -76.4908 -0.0282114 0 200 0
-2.21543 -76.4861 -0.0287756 0 200 0
-2.21709 -76.4814 -0.0293399 0 200 0
-2.21875 -76.4767 -0.0299041 0 200 0
-2.22041 -76.4721 -0.0304683 0 200 0
-2.22207 -76.4674 -0.0310325 0 200 0
-2.22373 -76.4627 -0.0315968 0 200 0
-2.22539 -76.458 -0.032161 0 200 0
-2.22705 -76.4533 -0.0327252 0 200 0
-2.2287 -76.4486 -0.0332895 0 200 0
-2.23036 -76.444 -0.0338537 0 200 0
-2.23202 -76.4393 -0.0344179 0 200 0
-2.23368 -76.4346 -0.0349821 0 200 0
-2.23534 -76.4299 -0.0355464 0 200 0
-2.237 -76.4252 -0.0361106 0 200 0
-2.23866 -76.4205 -0.0366748 0 200 0
-2.24032 -76.4159 -0.0372391 0 200 0
-2.24198 -76.4112 -0.0378033 0 200 0
-2.24364 -76.4065 -0.0383675 0 200 0
-2.2453 -76.4018 -0.0389317 0 200 0
-2.24696 -76.3971 -0.039496 0 200 0
-2.24862 -76.3924 -0.0400602 0 200 0
-2.25028 -76.3878 -0.0406244 0 200 0
-2.25194 -76.3831 -0.0411886 0 200 0
-2.2536 -76.3784 -0.0417529 0 200 0
-2.25526 -76.3737 -0.0423171 0 200 0
-2.25692 -76.369 -0.0428813 0 200 0
-2.25858 -76.3644 -0.0434456 0 200 0
-2.26024 -76.3597 -0.0440098 0 200 0
-2.2619 -76.355 -0.044574 0 200 0
-2.26356 -76.3503 -0.0451382 0 200 0
-2.26522 -76.3456 -0.0457025 0 200 0
-2.26688 -76.3409 -0.0462667 0 200 0
-2.26854 -76.3363 -0.0468309 0 200 0
-2.2702 -76.3316 -0.0473952 0 200 0
-2.27186 -76.3269 -0.0479594 0 200 0
-2.27352 -76.3222 -0.0485236 0 200 0
-2.27518 -76.3175 -0.0490878 0 200 0
-2.27684 -76.3128 -0.0496521 0 200 0
-2.2785 -76.3082 -0.0502163 0 200 0
-2.28016 -76.3035 -0.0507805 0 200 0
-2.28182 -76.2988 -0.0513448 0 200 0
-2.28348 -76.2941 -0.051909 0 200 0
-2.28514 -76.2894 -0.0524732 0 200 0
-2.2868 -76.2848 -0.0530374 0 200 0
-2.28846 -76.2801 -0.0536017 0 200 0
-2.29012 -76.2754 -0.0541659 0 200 0
-2.29178 -76.2707 -0.0547301 0 200 0
-2.29344 -76.266 -0.0552943 0 200 0
-2.2951 -76.2613 -0.0558586 0 200 0
-3.47597 -78.0392 0 0 200 0
-3.47618 -78.0343 -0.000687278 0 200 0
-3.47639 -78.0293 -0.00137456 0 200 0
-3.4766 -78.0244 -0.00206183 0 200 0
-3.47681 -78.0194 -0.00274911 0 200 0
-3.47702 -78.0145 -0.00343639 0 200 0
-3.47723 -78.0095 -0.00412367 0 200 0
-3.47743 -78.0046 -0.00481094 0 200 0
-3.47764 -77.9996 -0.00549822 0 200 0
-3.47785 -77.9947 -0.0061855 0 200 0
-3.47806 -77.9897 -0.00687278 0 200 0
-3.47827 -77.9848 -0.00756005 0 200 0
-3.47848 -77.9798 -0.00824733 0 200 0
-3.47869 -77.9749 -0.00893461 0 200 0
-3.4789 -77.9699 -0.00962189 0 200 0
-3.4791 -77.965 -0.0103092 0 200 0
-3.47931 -77.9601 -0.0109964 0 200 0
-3.47952 -77.9551 -0.0116837 0 200 0
-3.47973 -77.9502 -0.012371 0 200 0
-3.47994 -77.9452 -0.0130583 0 200 0
-3.48015 -77.9403 -0.0137456 0 200 0
-3.48036 -77.9353 -0.0144328 0 200 0
-3.48057 -77.9304 -0.0151201 0 200 0
-3.48077 -77.9254 -0.0158074 0 200 0
-3.48098 -77.9205 -0.0164947 0 200 0
-3.48119 -77.9155 -0.0171819 0 200 0
-3.4814 -77.9106 -0.0178692 0 200 0
-3.48161 -77.9056 -0.0185565 0 200 0
-3.48182 -77.9007 -0.0192438 0 200 0
-3.48203 -77.8957 -0.0199311 0 200 0
-3.48224 -77.8908 -0.0206183 0 200 0
-3.48245 -77.8858 -0.0213056 0 200 0
-3.48265 -77.8809 -0.0219929 0 200 0
-3.48286 -77.8759 -0.0226802 0 200 0
-3.48307 -77.871 -0.0233674 0 200 0
-3.48328 -77.866 -0.0240547 0 200 0
-3.48349 -77.8611 -0.024742 0 200 0
-3.4837 -77.8561 -0.0254293 0 200 0
-3.48391 -77.8512 -0.0261166 0 200 0
-3.48412 -77.8462 -0.0268038 0 200 0
-3.48432 -77.8413 -0.0274911 0 200 0
-3.48453 -77.8363 -0.0281784 0 200 0
-3.48474 -77.8314 -0.0288657 0 200 0
-3.48495 -77.8265 -0.0295529 0 200 0
-3.48516 -77.8215 -0.0302402 0 200 0
-3.48537 -77.8166 -0.0309275 0 200 0
-3.48558 -77.8116 -0.0316148 0 200 0
-3.48579 -77.8067 -0.0323021 0 200 0
-3.48599 -77.8017 -0.0329893 0 200 0
-3.4862 -77.7968 -0.0336766 0 200 0
-3.48641 -77.7918 -0.0343639 0 200 0
-3.48662 -77.7869 -0.0350512 0 200 0
-3.48683 -77.7819 -0.0357384 0 200 0
-3.48704 -77.777 -0.0364257 0 200 0
-3.48725 -77.772 -0.037113 0 200 0
-3.48746 -77.7671 -0.0378003 0 200 0
-3.48766 -77.7621 -0.0384875 0 200 0
-3.48787 -77.7572 -0.0391748 0 200 0
-3.48808 -77.7522 -0.0398621 0 200 0
-3.48829 -77.7473 -0.0405494 0 200 0
-3.4885 -77.7423 -0.0412367 0 200 0
-3.48871 -77.7374 -0.0419239 0 200 0
-3.48892 -77.7324 -0.0426112 0 200 0
-3.48913 -77.7275 -0.0432985 0 200 0
-3.48933 -77.7225 -0.0439858 0 200 0
-3.48954 -77.7176 -0.0446731 0 200 0
-3.48975 -77.7126 -0.0453603 0 200 0
-3.48996 -77.7077 -0.0460476 0 200 0
-3.49017 -77.7028 -0.0467349 0 200 0
-3.49038 -77.6978 -0.0474222 0 200 0
-3.49059 -77.6929 -0.0481094 0 200 0
-3.4908 -77.6879 -0.0487967 0 200 0
-3.491 -77.683 -0.049484 0 200 0
-3.49121 -77.678 -0.0501713 0 200 0
-3.49142 -77.6731 -0.0508585 0 200 0
-3.49163 -77.6681 -0.0515458 0 200 0
-3.49184 -77.6632 -0.0522331 0 200 0
-3.49205 -77.6582 -0.0529204 0 200 0
-3.49226 -77.6533 -0.0536077 0 200 0
-3.49247 -77.6483 -0.0542949 0 200 0
-3.49268 -77.6434 -0.0549822 0 200 0
-3.49288 -77.6384 -0.0556695 0 200 0
-3.49309 -77.6335 -0.0563568 0 200 0
-3.4933 -77.6285 -0.057044 0 200 0
-3.49351 -77.6236 -0.0577313 0 200 0
-3.49372 -77.6186 -0.0584186 0 200 0
-3.49393 -77.6137 -0.0591059 0 200 0
-3.49414 -77.6087 -0.0597932 0 200 0
-3.49435 -77.6038 -0.0604804 0 200 0
-3.49455 -77.5988 -0.0611677 0 200 0
-3.49476 -77.5939 -0.061855 0 200 0
-3.49497 -77.5889 -0.0625423 0 200 0
-3.49518 -77.584 -0.0632295 0 200 0
-3.49539 -77.579 -0.0639168 0 200 0
-3.4956 -77.5741 -0.0646041 0 200 0
-3.49581 -77.5692 -0.0652914 0 200 0
-3.49602 -77.5642 -0.0659787 0 200 0
-3.49622 -77.5592 -0.0666659 0 200 0
-3.49643 -77.5543 -0.0673532 0 200 0
-3.49664 -77.5494 -0.0680405 0 200 0
-4.65217 -79.0591 0 0 200 0
-4.65063 -79.0545 -0.00100436 0 200 0
-4.6491 -79.0498 -0.00200872 0 200 0
-4.64757 -79.0452 -0.00301308 0 200 0
-4.64603 -79.0405 -0.00401744 0 200 0
-4.6445 -79.0359 -0.0050218 0 200 0
-4.64296 -79.0312 -0.00602616 0 200 0
-4.64143 -79.0266 -0.00703052 0 200 0
-4.63989 -79.0219 -0.00803488 0 200 0
-4.63836 -79.0173 -0.00903924 0 200 0
-4.63683 -79.0126 -0.0100436 0 200 0
-4.63529 -79.008 -0.011048 0 200 0
-4.63376 -79.0033 -0.0120523 0 200 0
-4.63222 -78.9987 -0.0130567 0 200 0
-4.63069 -78.994 -0.014061 0 200 0
-4.62915 -78.9893 -0.0150654 0 200 0
-4.62762 -78.9847 -0.0160698 0 200 0
-4.62609 -78.98 -0.0170741 0 200 0
-4.62455 -78.9754 -0.0180785 0 200 0
-4.62302 -78.9707 -0.0190828 0 200 0
-4.62148 -78.9661 -0.0200872 0 200 0
-4.61995 -78.9614 -0.0210916 0 200 0
-4.61841 -78.9568 -0.0220959 0 200 0
-4.61688 -78.9521 -0.0231003 0 200 0
-4.61535 -78.9475 -0.0241046 0 200 0
-4.61381 -78.9428 -0.025109 0 200 0
-4.61228 -78.9382 -0.0261133 0 200 0
-4.61074 -78.9335 -0.0271177 0 200 0
-4.60921 -78.9289 -0.0281221 0 200 0
-4.60767 -78.9242 -0.0291264 0 200 0
-4.60614 -78.9196 -0.0301308 0 200 0
-4.60461 -78.9149 -0.0311351 0 200 0
-4.60307 -78.9103 -0.0321395 0 200 0
-4.60154 -78.9056 -0.0331439 0 200 0
-4.6 -78.901 -0.0341482 0 200 0
-4.59847 -78.8963 -0.0351526 0 200 0
-4.59693 -78.8917 -0.0361569 0 200 0
-4.5954 -78.887 -0.0371613 0 200 0
-4.59387 -78.8824 -0.0381657 0 200 0
-4.59233 -78.8777 -0.03917 0 200 0
-4.5908 -78.8731 -0.0401744 0 200 0
-4.58926 -78.8684 -0.0411787 0 200 0
-4.58773 -78.8638 -0.0421831 0 200 0
-4.58619 -78.8591 -0.0431875 0 200 0
-4.58466 -78.8545 -0.0441918 0 200 0
-4.58313 -78.8498 -0.0451962 0 200 0
-4.58159 -78.8452 -0.0462005 0 200 0
-4.58006 -78.8405 -0.0472049 0 200 0
-4.57852 -78.8358 -0.0482093 0 200 0
-4.57699 -78.8312 -0.0492136 0 200 0
-4.57545 -78.8265 -0.050218 0 200 0
-4.57392 -78.8219 -0.0512223 0 200 0
-4.57239 -78.8172 -0.0522267 0 200 0
-4.57085 -78.8126 -0.0532311 0 200 0
-4.56932 -78.8079 -0.0542354 0 200 0
-4.56778 -78.8033 -0.0552398 0 200 0
-4.56625 -78.7986 -0.0562441 0 200 0
-4.56471 -78.794 -0.0572485 0 200 0
-4.56318 -78.7893 -0.0582529 0 200 0
-4.56165 -78.7847 -0.0592572 0 200 0
-4.56011 -78.78 -0.0602616 0 200 0
-4.55858 -78.7754 -0.0612659 0 200 0
-4.55704 -78.7707 -0.0622703 0 200 0
-4.55551 -78.7661 -0.0632747 0 200 0
-4.55397 -78.7614 -0.064279 0 200 0
-4.55244 -78.7568 -0.0652834 0 200 0
-4.55091 -78.7521 -0.0662877 0 200 0
-4.54937 -78.7475 -0.0672921 0 200 0
-4.54784 -78.7428 -0.0682965 0 200 0
-4.5463 -78.7382 -0.0693008 0 200 0
-4.54477 -78.7335 -0.0703052 0 200 0
-4.54323 -78.7289 -0.0713095 0 200 0
-4.5417 -78.7242 -0.0723139 0 200 0
-4.54017 -78.7196 -0.0733183 0 200 0
-4.53863 -78.7149 -0.0743226 0 200 0
-4.5371 -78.7103 -0.075327 0 200 0
-4.53556 -78.7056 -0.0763313 0 200 0
-4.53403 -78.701 -0.0773357 0 200 0
-4.53249 -78.6963 -0.07834 0 200 0
-4.53096 -78.6917 -0.0793444 0 200 0
-4.52943 -78.687 -0.0803488 0 200 0
-4.52789 -78.6823 -0.0813531 0 200 0
-4.52636 -78.6777 -0.0823575 0 200 0
-4.52482 -78.673 -0.0833618 0 200 0
-4.52329 -78.6684 -0.0843662 0 200 0
-4.52175 -78.6637 -0.0853706 0 200 0
-4.52022 -78.6591 -0.0863749 0 200 0
-4.51869 -78.6544 -0.0873793 0 200 0
-4.51715 -78.6498 -0.0883836 0 200 0
-4.51562 -78.6451 -0.089388 0 200 0
-4.51408 -78.6405 -0.0903924 0 200 0
-4.51255 -78.6358 -0.0913967 0 200 0
-4.51101 -78.6312 -0.0924011 0 200 0
-4.50948 -78.6265 -0.0934054 0 200 0
-4.50795 -78.6219 -0.0944098 0 200 0
-4.50641 -78.6172 -0.0954142 0 200 0
-4.50488 -78.6126 -0.0964185 0 200 0
-4.50334 -78.6079 -0.0974229 0 200 0
-4.50181 -78.6033 -0.0984272 0 200 0
-4.50027 -78.5986 -0.0994316 0 200 0
-5.73559 -79.8875 0 0 200 0
-5.73383 -79.8829 -0.0011084 0 200 0
-5.73206 -79.8784 -0.0022168 0 200 0
-5.7303 -79.8738 -0.0033252 0 200 0
-5.72854 -79.8693 -0.0044336 0 200 0
-5.72678 -79.8648 -0.005542 0 200 0
-5.72501 -79.8602 -0.0066504 0 200 0
-5.72325 -79.8557 -0.0077588 0 200 0
-5.72149 -79.8511 -0.0088672 0 200 0
-5.71972 -79.8466 -0.0099756 0 200 0
-5.71796 -79.842 -0.011084 0 200 0
-5.7162 -79.8375 -0.0121924 0 200 0
-5.71443 -79.8329 -0.0133008 0 200 0
-5.71267 -79.8284 -0.0144092 0 200 0
-5.71091 -79.8238 -0.0155176 0 200 0
-5.70915 -79.8193 -0.016626 0 200 0
-5.70738 -79.8148 -0.0177344 0 200 0
-5.70562 -79.8102 -0.0188428 0 200 0
-5.70386 -79.8057 -0.0199512 0 200 0
-5.70209 -79.8011 -0.0210596 0 200 0
-5.70033 -79.7966 -0.022168 0 200 0
-5.69857 -79.792 -0.0232764 0 200 0
-5.69681 -79.7875 -0.0243848 0 200 0
-5.69504 -79.7829 -0.0254932 0 200 0
-5.69328 -79.7784 -0.0266016 0 200 0
-5.69152 -79.7738 -0.02771 0 200 0
-5.68975 -79.7693 -0.0288184 0 200 0
-5.68799 -79.7647 -0.0299268 0 200 0
-5.68623 -79.7602 -0.0310352 0 200 0
-5.68446 -79.7557 -0.0321436 0 200 0
-5.6827 -79.7511 -0.033252 0 200 0
-5.68094 -79.7466 -0.0343604 0 200 0
-5.67917 -79.742 -0.0354688 0 200 0
-5.67741 -79.7375 -0.0365772 0 200 0
-5.67565 -79.7329 -0.0376856 0 200 0
-5.67389 -79.7284 -0.038794 0 200 0
-5.67212 -79.7238 -0.0399024 0 200 0
-5.67036 -79.7193 -0.0410108 0 200 0
-5.6686 -79.7147 -0.0421192 0 200 0
-5.66683 -79.7102 -0.0432276 0 200 0
-5.66507 -79.7057 -0.044336 0 200 0
-5.66331 -79.7011 -0.0454444 0 200 0
-5.66155 -79.6966 -0.0465528 0 200 0
-5.65978 -79.692 -0.0476612 0 200 0
-5.65802 -79.6875 -0.0487696 0 200 0
-5.65626 -79.6829 -0.049878 0 200 0
-5.65449 -79.6784 -0.0509864 0 200 0
-5.65273 -79.6738 -0.0520948 0 200 0
-5.65097 -79.6693 -0.0532032 0 200 0
-5.6492 -79.6647 -0.0543116 0 200 0
-5.64744 -79.6602 -0.05542 0 200 0
-5.64568 -79.6556 -0.0565284 0 200 0
-5.64392 -79.6511 -0.0576368 0 200 0
-5.64215 -79.6466 -0.0587452 0 200 0
-5.64039 -79.642 -0.0598536 0 200 0
-5.63863 -79.6375 -0.060962 0 200 0
-5.63686 -79.6329 -0.0620704 0 200 0
-5.6351 -79.6284 -0.0631788 0 200 0
-5.63334 -79.6238 -0.0642872 0 200 0
-5.63157 -79.6193 -0.0653956 0 200 0
-5.62981 -79.6147 -0.066504 0 200 0
-5.62805 -79.6102 -0.0676124 0 200 0
-5.62629 -79.6056 -0.0687208 0 200 0
-5.62452 -79.6011 -0.0698292 0 200 0
-5.62276 -79.5966 -0.0709376 0 200 0
-5.621 -79.592 -0.072046 0 200 0
-5.61923 -79.5875 -0.0731544 0 200 0
-5.61747 -79.5829 -0.0742628 0 200 0
-5.61571 -79.5784 -0.0753712 0 200 0
-5.61394 -79.5738 -0.0764796 0 200 0
-5.61218 -79.5693 -0.077588 0 200 0
-5.61042 -79.5647 -0.0786964 0 200 0
-5.60866 -79.5602 -0.0798048 0 200 0
-5.60689 -79.5556 -0.0809132 0 200 0
-5.60513 -79.5511 -0.0820216 0 200 0
-5.60337 -79.5466 -0.08313 0 200 0
-5.6016 -79.542 -0.0842384 0 200 0
-5.59984 -79.5375 -0.0853468 0 200 0
-5.59808 -79.5329 -0.0864552 0 200 0
-5.59631 -79.5284 -0.0875636 0 200 0
-5.59455 -79.5238 -0.088672 0 200 0
-5.59279 -79.5193 -0.0897804 0 200 0
-5.59103 -79.5147 -0.0908888 0 200 0
-5.58926 -79.5102 -0.0919972 0 200 0
-5.5875 -79.5056 -0.0931056 0 200 0
-5.58574 -79.5011 -0.094214 0 200 0
-5.58397 -79.4966 -0.0953224 0 200 0
-5.58221 -79.492 -0.0964308 0 200 0
-5.58045 -79.4875 -0.0975392 0 200 0
-5.57868 -79.4829 -0.0986476 0 200 0
-5.57692 -79.4784 -0.099756 0 200 0
-5.57516 -79.4738 -0.100864 0 200 0
-5.5734 -79.4693 -0.101973 0 200 0
-5.57163 -79.4647 -0.103081 0 200 0
-5.56987 -79.4602 -0.10419 0 200 0
-5.56811 -79.4556 -0.105298 0 200 0
-5.56634 -79.4511 -0.106406 0 200 0
-5.56458 -79.4465 -0.107515 0 200 0
-5.56282 -79.442 -0.108623 0 200 0
-5.56105 -79.4375 -0.109732 0 200 0
-6.79045 -80.5473 0 0 200 0
-6.78954 -80.5425 -0.000681056 0 200 0
-6.78862 -80.5376 -0.00136211 0 200 0
-6.78771 -80.5327 -0.00204317 0 200 0
-6.78679 -80.5279 -0.00272422 0 200 0
-6.78587 -80.523 -0.00340528 0 200 0
-6.78496 -80.5181 -0.00408634 0 200 0
-6.78404 -80.5133 -0.00476739 0 200 0
-6.78313 -80.5084 -0.00544845 0 200 0
-6.78221 -80.5035 -0.0061295 0 200 0
-6.78129 -80.4987 -0.00681056 0 200 0
-6.78038 -80.4938 -0.00749162 0 200 0
-6.77946 -80.4889 -0.00817267 0 200 0
-6.77855 -80.4841 -0.00885373 0 200 0
-6.77763 -80.4792 -0.00953478 0 200 0
-6.77671 -80.4743 -0.0102158 0 200 0
-6.7758 -80.4695 -0.0108969 0 200 0
-6.77488 -80.4646 -0.011578 0 200 0
-6.77397 -80.4597 -0.012259 0 200 0
-6.77305 -80.4549 -0.0129401 0 200 0
-6.77214 -80.45 -0.0136211 0 200 0
-6.77122 -80.4451 -0.0143022 0 200 0
-6.7703 -80.4403 -0.0149832 0 200 0
-6.76939 -80.4354 -0.0156643 0 200 0
-6.76847 -80.4305 -0.0163453 0 200 0
-6.76756 -80.4257 -0.0170264 0 200 0
-6.76664 -80.4208 -0.0177075 0 200 0
-6.76572 -80.4159 -0.0183885 0 200 0
-6.76481 -80.411 -0.0190696 0 200 0
-6.76389 -80.4062 -0.0197506 0 200 0
-6.76298 -80.4013 -0.0204317 0 200 0
-6.76206 -80.3964 -0.0211127 0 200 0
-6.76114 -80.3916 -0.0217938 0 200 0
-6.76023 -80.3867 -0.0224748 0 200 0
-6.75931 -80.3818 -0.0231559 0 200 0
-6.7584 -80.377 -0.023837 0 200 0
-6.75748 -80.3721 -0.024518 0 200 0
-6.75657 -80.3672 -0.0251991 0 200 0
-6.75565 -80.3624 -0.0258801 0 200 0
-6.75473 -80.3575 -0.0265612 0 200 0
-6.75382 -80.3526 -0.0272422 0 200 0
-6.7529 -80.3478 -0.0279233 0 200 0
-6.75199 -80.3429 -0.0286044 0 200 0
-6.75107 -80.338 -0.0292854 0 200 0
-6.75015 -80.3332 -0.0299665 0 200 0
-6.74924 -80.3283 -0.0306475 0 200 0
-6.74832 -80.3234 -0.0313286 0 200 0
-6.74741 -80.3186 -0.0320096 0 200 0
-6.74649 -80.3137 -0.0326907 0 200 0
-6.74557 -80.3088 -0.0333717 0 200 0
-6.74466 -80.3039 -0.0340528 0 200 0
-6.74374 -80.2991 -0.0347339 0 200 0
-6.74283 -80.2942 -0.0354149 0 200 0
-6.74191 -80.2893 -0.036096 0 200 0
-6.741 -80.2845 -0.036777 0 200 0
-6.74008 -80.2796 -0.0374581 0 200 0
-6.73916 -80.2747 -0.0381391 0 200 0
-6.73825 -80.2699 -0.0388202 0 200 0
-6.73733 -80.265 -0.0395012 0 200 0
-6.73642 -80.2601 -0.0401823 0 200 0
-6.7355 -80.2553 -0.0408634 0 200 0
-6.73458 -80.2504 -0.0415444 0 200 0
-6.73367 -80.2455 -0.0422255 0 200 0
-6.73275 -80.2407 -0.0429065 0 200 0
-6.73184 -80.2358 -0.0435876 0 200 0
-6.73092 -80.2309 -0.0442686 0 200 0
-6.73001 -80.2261 -0.0449497 0 200 0
-6.72909 -80.2212 -0.0456308 0 200 0
-6.72817 -80.2163 -0.0463118 0 200 0
-6.72726 -80.2115 -0.0469929 0 200 0
-6.72634 -80.2066 -0.0476739 0 200 0
-6.72543 -80.2017 -0.048355 0 200 0
-6.72451 -80.1969 -0.049036 0 200 0
-6.72359 -80.192 -0.0497171 0 200 0
-6.72268 -80.1871 -0.0503981 0 200 0
-6.72176 -80.1823 -0.0510792 0 200 0
-6.72085 -80.1774 -0.0517603 0 200 0
-6.71993 -80.1725 -0.0524413 0 200 0
-6.71901 -80.1676 -0.0531224 0 200 0
-6.7181 -80.1628 -0.0538034 0 200 0
-6.71718 -80.1579 -0.0544845 0 200 0
-6.71627 -80.153 -0.0551655 0 200 0
-6.71535 -80.1482 -0.0558466 0 200 0
-6.71444 -80.1433 -0.0565276 0 200 0
-6.71352 -80.1384 -0.0572087 0 200 0
-6.7126 -80.1336 -0.0578898 0 200 0
-6.71169 -80.1287 -0.0585708 0 200 0
-6.71077 -80.1238 -0.0592519 0 200 0
-6.70986 -80.119 -0.0599329 0 200 0
-6.70894 -80.1141 -0.060614 0 200 0
-6.70802 -80.1092 -0.061295 0 200 0
-6.70711 -80.1044 -0.0619761 0 200 0
-6.70619 -80.0995 -0.0626571 0 200 0
-6.70528 -80.0946 -0.0633382 0 200 0
-6.70436 -80.0898 -0.0640193 0 200 0
-6.70344 -80.0849 -0.0647003 0 200 0
-6.70253 -80.08 -0.0653814 0 200 0
-6.70161 -80.0752 -0.0660624 0 200 0
-6.7007 -80.0703 -0.0667435 0 200 0
-6.69978 -80.0654 -0.0674245 0 200 0
-7.57037 -81.0172 0 0 200 0
-7.56814 -81.0129 -0.0011474 0 200 0
-7.56591 -81.0085 -0.00229481 0 200 0
-7.56368 -81.0042 -0.00344221 0 200 0
-7.56145 -80.9999 -0.00458962 0 200 0
-7.55922 -80.9956 -0.00573702 0 200 0
-7.55699 -80.9912 -0.00688443 0 200 0
-7.55476 -80.9869 -0.00803183 0 200 0
-7.55253 -80.9826 -0.00917924 0 200 0
-7.5503 -80.9783 -0.0103266 0 200 0
-7.54807 -80.9739 -0.011474 0 200 0
-7.54584 -80.9696 -0.0126214 0 200 0
-7.54361 -80.9653 -0.0137689 0 200 0
-7.54138 -80.961 -0.0149163 0 200 0
-7.53915 -80.9566 -0.0160637 0 200 0
-7.53692 -80.9523 -0.0172111 0 200 0
-7.53468 -80.948 -0.0183585 0 200 0
-7.53245 -80.9437 -0.0195059 0 200 0
-7.53022 -80.9393 -0.0206533 0 200 0
-7.52799 -80.935 -0.0218007 0 200 0
-7.52576 -80.9307 -0.0229481 0 200 0
-7.52353 -80.9264 -0.0240955 0 200 0
-7.5213 -80.922 -0.0252429 0 200 0
-7.51907 -80.9177 -0.0263903 0 200 0
-7.51684 -80.9134 -0.0275377 0 200 0
-7.51461 -80.9091 -0.0286851 0 200 0
-7.51238 -80.9047 -0.0298325 0 200 0
-7.51015 -80.9004 -0.0309799 0 200 0
-7.50792 -80.8961 -0.0321273 0 200 0
-7.50569 -80.8918 -0.0332747 0 200 0
-7.50346 -80.8874 -0.0344221 0 200 0
-7.50123 -80.8831 -0.0355695 0 200 0
-7.499 -80.8788 -0.0367169 0 200 0
-7.49677 -80.8745 -0.0378643 0 200 0
-7.49454 -80.8701 -0.0390118 0 200 0
-7.49231 -80.8658 -0.0401592 0 200 0
-7.49008 -80.8615 -0.0413066 0 200 0
-7.48785 -80.8572 -0.042454 0 200 0
-7.48561 -80.8528 -0.0436014 0 200 0
-7.48338 -80.8485 -0.0447488 0 200 0
-7.48115 -80.8442 -0.0458962 0 200 0
-7.47892 -80.8399 -0.0470436 0 200 0
-7.47669 -80.8355 -0.048191 0 200 0
-7.47446 -80.8312 -0.0493384 0 200 0
-7.47223 -80.8269 -0.0504858 0 200 0
-7.47 -80.8225 -0.0516332 0 200 0
-7.46777 -80.8182 -0.0527806 0 200 0
-7.46554 -80.8139 -0.053928 0 200 0
-7.46331 -80.8096 -0.0550754 0 200 0
-7.46108 -80.8052 -0.0562228 0 200 0
-7.45885 -80.8009 -0.0573702 0 200 0
-7.45662 -80.7966 -0.0585176 0 200 0
-7.45439 -80.7923 -0.059665 0 200 0
-7.45216 -80.7879 -0.0608124 0 200 0
-7.44993 -80.7836 -0.0619598 0 200 0
-7.4477 -80.7793 -0.0631072 0 200 0
-7.44547 -80.775 -0.0642546 0 200 0
-7.44324 -80.7706 -0.0654021 0 200 0
-7.44101 -80.7663 -0.0665495 0 200 0
-7.43878 -80.762 -0.0676969 0 200 0
-7.43654 -80.7577 -0.0688443 0 200 0
-7.43431 -80.7533 -0.0699917 0 200 0
-7.43208 -80.749 -0.0711391 0 200 0
-7.42985 -80.7447 -0.0722865 0 200 0
-7.42762 -80.7404 -0.0734339 0 200 0
-7.42539 -80.736 -0.0745813 0 200 0
-7.42316 -80.7317 -0.0757287 0 200 0
-7.42093 -80.7274 -0.0768761 0 200 0
-7.4187 -80.7231 -0.0780235 0 200 0
-7.41647 -80.7187 -0.0791709 0 200 0
-7.41424 -80.7144 -0.0803183 0 200 0
-7.41201 -80.7101 -0.0814657 0 200 0
-7.40978 -80.7058 -0.0826131 0 200 0
-7.40755 -80.7014 -0.0837605 0 200 0
-7.40532 -80.6971 -0.0849079 0 200 0
-7.40309 -80.6928 -0.0860553 0 200 0
-7.40086 -80.6885 -0.0872027 0 200 0
-7.39863 -80.6841 -0.0883501 0 200 0
-7.3964 -80.6798 -0.0894975 0 200 0
-7.39417 -80.6755 -0.0906449 0 200 0
-7.39194 -80.6712 -0.0917924 0 200 0
-7.38971 -80.6668 -0.0929398 0 200 0
-7.38748 -80.6625 -0.0940872 0 200 0
-7.38524 -80.6582 -0.0952346 0 200 0
-7.38301 -80.6539 -0.096382 0 200 0
-7.38078 -80.6495 -0.0975294 0 200 0
-7.37855 -80.6452 -0.0986768 0 200 0
-7.37632 -80.6409 -0.0998242 0 200 0
-7.37409 -80.6366 -0.100972 0 200 0
-7.37186 -80.6322 -0.102119 0 200 0
-7.36963 -80.6279 -0.103266 0 200 0
-7.3674 -80.6236 -0.104414 0 200 0
-7.36517 -80.6193 -0.105561 0 200 0
-7.36294 -80.6149 -0.106709 0 200 0
-7.36071 -80.6106 -0.107856 0 200 0
-7.35848 -80.6063 -0.109003 0 200 0
-7.35625 -80.602 -0.110151 0 200 0
-7.35402 -80.5976 -0.111298 0 200 0
-7.35179 -80.5933 -0.112446 0 200 0
-7.34956 -80.589 -0.113593 0 200 0
-8.26653 -81.4981 0 0 200 0
-8.26565 -81.4933 -0.00111718 0 200 0
-8.26477 -81.4885 -0.00223436 0 200 0
-8.26389 -81.4837 -0.00335154 0 200 0
-8.26301 -81.4789 -0.00446872 0 200 0
-8.26213 -81.4742 -0.00558591 0 200 0
-8.26125 -81.4694 -0.00670309 0 200 0
-8.26037 -81.4646 -0.00782027 0 200 0
-8.25949 -81.4598 -0.00893745 0 200 0
-8.25861 -81.455 -0.0100546 0 200 0
-8.25773 -81.4502 -0.0111718 0 200 0
-8.25685 -81.4454 -0.012289 0 200 0
-8.25596 -81.4406 -0.0134062 0 200 0
-8.25508 -81.4358 -0.0145234 0 200 0
-8.2542 -81.431 -0.0156405 0 200 0
-8.25332 -81.4262 -0.0167577 0 200 0
-8.25244 -81.4214 -0.0178749 0 200 0
-8.25156 -81.4166 -0.0189921 0 200 0
-8.25068 -81.4118 -0.0201093 0 200 0
-8.2498 -81.407 -0.0212264 0 200 0
-8.24892 -81.4023 -0.0223436 0 200 0
-8.24804 -81.3975 -0.0234608 0 200 0
-8.24716 -81.3927 -0.024578 0 200 0
-8.24628 -81.3879 -0.0256952 0 200 0
-8.2454 -81.3831 -0.0268123 0 200 0
-8.24452 -81.3783 -0.0279295 0 200 0
-8.24364 -81.3735 -0.0290467 0 200 0
-8.24276 -81.3687 -0.0301639 0 200 0
-8.24188 -81.3639 -0.0312811 0 200 0
-8.241 -81.3591 -0.0323982 0 200 0
-8.24012 -81.3543 -0.0335154 0 200 0
-8.23924 -81.3495 -0.0346326 0 200 0
-8.23836 -81.3447 -0.0357498 0 200 0
-8.23748 -81.3399 -0.036867 0 200 0
-8.2366 -81.3351 -0.0379842 0 200 0
-8.23571 -81.3303 -0.0391013 0 200 0
-8.23483 -81.3256 -0.0402185 0 200 0
-8.23395 -81.3208 -0.0413357 0 200 0
-8.23307 -81.316 -0.0424529 0 200 0
-8.23219 -81.3112 -0.0435701 0 200 0
-8.23131 -81.3064 -0.0446872 0 200 0
-8.23043 -81.3016 -0.0458044 0 200 0
-8.22955 -81.2968 -0.0469216 0 200 0
-8.22867 -81.292 -0.0480388 0 200 0
-8.22779 -81.2872 -0.049156 0 200 0
-8.22691 -81.2824 -0.0502731 0 200 0
-8.22603 -81.2776 -0.0513903 0 200 0
-8.22515 -81.2728 -0.0525075 0 200 0
-8.22427 -81.268 -0.0536247 0 200 0
-8.22339 -81.2632 -0.0547419 0 200 0
-8.22251 -81.2584 -0.0558591 0 200 0
-8.22163 -81.2537 -0.0569762 0 200 0
-8.22075 -81.2489 -0.0580934 0 200 0
-8.21987 -81.2441 -0.0592106 0 200 0
-8.21899 -81.2393 -0.0603278 0 200 0
-8.21811 -81.2345 -0.061445 0 200 0
-8.21723 -81.2297 -0.0625621 0 200 0
-8.21634 -81.2249 -0.0636793 0 200 0
-8.21546 -81.2201 -0.0647965 0 200 0
-8.21458 -81.2153 -0.0659137 0 200 0
-8.2137 -81.2105 -0.0670309 0 200 0
-8.21282 -81.2057 -0.068148 0 200 0
-8.21194 -81.2009 -0.0692652 0 200 0
-8.21106 -81.1961 -0.0703824 0 200 0
-8.21018 -81.1913 -0.0714996 0 200 0
-8.2093 -81.1865 -0.0726168 0 200 0
-8.20842 -81.1818 -0.0737339 0 200 0
-8.20754 -81.177 -0.0748511 0 200 0
-8.20666 -81.1722 -0.0759683 0 200 0
-8.20578 -81.1674 -0.0770855 0 200 0
-8.2049 -81.1626 -0.0782027 0 200 0
-8.20402 -81.1578 -0.0793199 0 200 0
-8.20314 -81.153 -0.080437 0 200 0
-8.20226 -81.1482 -0.0815542 0 200 0
-8.20138 -81.1434 -0.0826714 0 200 0
-8.2005 -81.1386 -0.0837886 0 200 0
-8.19962 -81.1338 -0.0849058 0 200 0
-8.19874 -81.129 -0.0860229 0 200 0
-8.19786 -81.1242 -0.0871401 0 200 0
-8.19698 -81.1194 -0.0882573 0 200 0
-8.19609 -81.1146 -0.0893745 0 200 0
-8.19521 -81.1099 -0.0904917 0 200 0
-8.19433 -81.1051 -0.0916088 0 200 0
-8.19345 -81.1003 -0.092726 0 200 0
-8.19257 -81.0955 -0.0938432 0 200 0
-8.19169 -81.0907 -0.0949604 0 200 0
-8.19081 -81.0859 -0.0960776 0 200 0
-8.18993 -81.0811 -0.0971948 0 200 0
-8.18905 -81.0763 -0.0983119 0 200 0
-8.18817 -81.0715 -0.0994291 0 200 0
-8.18729 -81.0667 -0.100546 0 200 0
-8.18641 -81.0619 -0.101663 0 200 0
-8.18553 -81.0571 -0.102781 0 200 0
-8.18465 -81.0523 -0.103898 0 200 0
-8.18377 -81.0475 -0.105015 0 200 0
-8.18289 -81.0427 -0.106132 0 200 0
-8.18201 -81.0379 -0.107249 0 200 0
-8.18113 -81.0332 -0.108367 0 200 0
-8.18025 -81.0284 -0.109484 0 200 0
-8.17937 -81.0236 -0.110601 0 200 0
-8.86713 -81.9547 0 0 200 0
-8.8668 -81.9497 -0.000421644 0 200 0
-8.86648 -81.9447 -0.000843289 0 200 0
-8.86615 -81.9398 -0.00126493 0 200 0
-8.86583 -81.9348 -0.00168658 0 200 0
-8.8655 -81.9298 -0.00210822 0 200 0
-8.86518 -81.9249 -0.00252987 0 200 0
-8.86485 -81.9199 -0.00295151 0 200 0
-8.86453 -81.9149 -0.00337315 0 200 0
-8.8642 -81.9099 -0.0037948 0 200 0
-8.86388 -81.905 -0.00421644 0 200 0
-8.86355 -81.9 -0.00463809 0 200 0
-8.86322 -81.895 -0.00505973 0 200 0
-8.8629 -81.8901 -0.00548138 0 200 0
-8.86257 -81.8851 -0.00590302 0 200 0
-8.86225 -81.8801 -0.00632466 0 200 0
-8.86192 -81.8751 -0.00674631 0 200 0
-8.8616 -81.8702 -0.00716795 0 200 0
-8.86127 -81.8652 -0.0075896 0 200 0
-8.86095 -81.8602 -0.00801124 0 200 0
-8.86062 -81.8553 -0.00843289 0 200 0
-8.8603 -81.8503 -0.00885453 0 200 0
-8.85997 -81.8453 -0.00927617 0 200 0
-8.85964 -81.8403 -0.00969782 0 200 0
-8.85932 -81.8354 -0.0101195 0 200 0
-8.85899 -81.8304 -0.0105411 0 200 0
-8.85867 -81.8254 -0.0109628 0 200 0
-8.85834 -81.8205 -0.0113844 0 200 0
-8.85802 -81.8155 -0.011806 0 200 0
-8.85769 -81.8105 -0.0122277 0 200 0
-8.85737 -81.8055 -0.0126493 0 200 0
-8.85704 -81.8006 -0.013071 0 200 0
-8.85672 -81.7956 -0.0134926 0 200 0
-8.85639 -81.7906 -0.0139143 0 200 0
-8.85607 -81.7857 -0.0143359 0 200 0
-8.85574 -81.7807 -0.0147576 0 200 0
-8.85541 -81.7757 -0.0151792 0 200 0
-8.85509 -81.7707 -0.0156008 0 200 0
-8.85476 -81.7658 -0.0160225 0 200 0
-8.85444 -81.7608 -0.0164441 0 200 0
-8.85411 -81.7558 -0.0168658 0 200 0
-8.85379 -81.7509 -0.0172874 0 200 0
-8.85346 -81.7459 -0.0177091 0 200 0
-8.85314 -81.7409 -0.0181307 0 200 0
-8.85281 -81.7359 -0.0185523 0 200 0
-8.85249 -81.731 -0.018974 0 200 0
-8.85216 -81.726 -0.0193956 0 200 0
-8.85184 -81.721 -0.0198173 0 200 0
-8.85151 -81.7161 -0.0202389 0 200 0
-8.85118 -81.7111 -0.0206606 0 200 0
-8.85086 -81.7061 -0.0210822 0 200 0
-8.85053 -81.7011 -0.0215039 0 200 0
-8.85021 -81.6962 -0.0219255 0 200 0
-8.84988 -81.6912 -0.0223471 0 200 0
-8.84956 -81.6862 -0.0227688 0 200 0
-8.84923 -81.6813 -0.0231904 0 200 0
-8.84891 -81.6763 -0.0236121 0 200 0
-8.84858 -81.6713 -0.0240337 0 200 0
-8.84826 -81.6663 -0.0244554 0 200 0
-8.84793 -81.6614 -0.024877 0 200 0
-8.8476 -81.6564 -0.0252987 0 200 0
-8.84728 -81.6514 -0.0257203 0 200 0
-8.84695 -81.6465 -0.0261419 0 200 0
-8.84663 -81.6415 -0.0265636 0 200 0
-8.8463 -81.6365 -0.0269852 0 200 0
-8.84598 -81.6315 -0.0274069 0 200 0
-8.84565 -81.6266 -0.0278285 0 200 0
-8.84533 -81.6216 -0.0282502 0 200 0
-8.845 -81.6166 -0.0286718 0 200 0
-8.84468 -81.6116 -0.0290935 0 200 0
-8.84435 -81.6067 -0.0295151 0 200 0
-8.84402 -81.6017 -0.0299367 0 200 0
-8.8437 -81.5967 -0.0303584 0 200 0
-8.84337 -81.5918 -0.03078 0 200 0
-8.84305 -81.5868 -0.0312017 0 200 0
-8.84272 -81.5818 -0.0316233 0 200 0
-8.8424 -81.5769 -0.032045 0 200 0
-8.84207 -81.5719 -0.0324666 0 200 0
-8.84175 -81.5669 -0.0328883 0 200 0
-8.84142 -81.5619 -0.0333099 0 200 0
-8.8411 -81.557 -0.0337315 0 200 0
-8.84077 -81.552 -0.0341532 0 200 0
-8.84045 -81.547 -0.0345748 0 200 0
-8.84012 -81.5421 -0.0349965 0 200 0
-8.83979 -81.5371 -0.0354181 0 200 0
-8.83947 -81.5321 -0.0358398 0 200 0
-8.83914 -81.5271 -0.0362614 0 200 0
-8.83882 -81.5222 -0.0366831 0 200 0
-8.83849 -81.5172 -0.0371047 0 200 0
-8.83817 -81.5122 -0.0375263 0 200 0
-8.83784 -81.5072 -0.037948 0 200 0
-8.83752 -81.5023 -0.0383696 0 200 0
-8.83719 -81.4973 -0.0387913 0 200 0
-8.83687 -81.4923 -0.0392129 0 200 0
-8.83654 -81.4874 -0.0396346 0 200 0
-8.83622 -81.4824 -0.0400562 0 200 0
-8.83589 -81.4774 -0.0404779 0 200 0
-8.83556 -81.4725 -0.0408995 0 200 0
-8.83524 -81.4675 -0.0413211 0 200 0
-8.83491 -81.4625 -0.0417428 0 200 0
-9.30307 -82.5802 0 0 200 0
-9.30194 -82.5754 -0.000768593 0 200 0
-9.30081 -82.5705 -0.00153719 0 200 0
-9.29968 -82.5657 -0.00230578 0 200 0
-9.29854 -82.5609 -0.00307437 0 200 0
-9.29741 -82.5561 -0.00384296 0 200 0
-9.29628 -82.5513 -0.00461156 0 200 0
-9.29515 -82.5465 -0.00538015 0 200 0
-9.29402 -82.5417 -0.00614874 0 200 0
-9.29289 -82.5369 -0.00691733 0 200 0
-9.29176 -82.5321 -0.00768593 0 200 0
-9.29063 -82.5273 -0.00845452 0 200 0
-9.2895 -82.5224 -0.00922311 0 200 0
-9.28837 -82.5176 -0.0099917 0 200 0
-9.28724 -82.5128 -0.0107603 0 200 0
-9.28611 -82.508 -0.0115289 0 200 0
-9.28498 -82.5032 -0.0122975 0 200 0
-9.28385 -82.4984 -0.0130661 0 200 0
-9.28272 -82.4936 -0.0138347 0 200 0
-9.28159 -82.4888 -0.0146033 0 200 0
-9.28046 -82.484 -0.0153719 0 200 0
-9.27933 -82.4792 -0.0161404 0 200 0
-9.27819 -82.4744 -0.016909 0 200 0
-9.27706 -82.4695 -0.0176776 0 200 0
-9.27593 -82.4647 -0.0184462 0 200 0
-9.2748 -82.4599 -0.0192148 0 200 0
-9.27367 -82.4551 -0.0199834 0 200 0
-9.27254 -82.4503 -0.020752 0 200 0
-9.27141 -82.4455 -0.0215206 0 200 0
-9.27028 -82.4407 -0.0222892 0 200 0
-9.26915 -82.4359 -0.0230578 0 200 0
-9.26802 -82.4311 -0.0238264 0 200 0
-9.26689 -82.4263 -0.024595 0 200 0
-9.26576 -82.4214 -0.0253636 0 200 0
-9.26463 -82.4166 -0.0261321 0 200 0
-9.2635 -82.4118 -0.0269007 0 200 0
-9.26237 -82.407 -0.0276693 0 200 0
-9.26124 -82.4022 -0.0284379 0 200 0
-9.26011 -82.3974 -0.0292065 0 200 0
-9.25897 -82.3926 -0.0299751 0 200 0
-9.25784 -82.3878 -0.0307437 0 200 0
-9.25671 -82.383 -0.0315123 0 200 0
-9.25558 -82.3782 -0.0322809 0 200 0
-9.25445 -82.3734 -0.0330495 0 200 0
-9.25332 -82.3685 -0.0338181 0 200 0
-9.25219 -82.3637 -0.0345867 0 200 0
-9.25106 -82.3589 -0.0353553 0 200 0
-9.24993 -82.3541 -0.0361238 0 200 0
-9.2488 -82.3493 -0.0368924 0 200 0
-9.24767 -82.3445 -0.037661 0 200 0
-9.24654 -82.3397 -0.0384296 0 200 0
-9.24541 -82.3349 -0.0391982 0 200 0
-9.24428 -82.3301 -0.0399668 0 200 0
-9.24315 -82.3253 -0.0407354 0 200 0
-9.24202 -82.3204 -0.041504 0 200 0
-9.24088 -82.3156 -0.0422726 0 200 0
-9.23975 -82.3108 -0.0430412 0 200 0
-9.23862 -82.306 -0.0438098 0 200 0
-9.23749 -82.3012 -0.0445784 0 200 0
-9.23636 -82.2964 -0.045347 0 200 0
-9.23523 -82.2916 -0.0461156 0 200 0
-9.2341 -82.2868 -0.0468841 0 200 0
-9.23297 -82.282 -0.0476527 0 200 0
-9.23184 -82.2772 -0.0484213 0 200 0
-9.23071 -82.2724 -0.0491899 0 200 0
-9.22958 -82.2675 -0.0499585 0 200 0
-9.22845 -82.2627 -0.0507271 0 200 0
-9.22732 -82.2579 -0.0514957 0 200 0
-9.22619 -82.2531 -0.0522643 0 200 0
-9.22506 -82.2483 -0.0530329 0 200 0
-9.22393 -82.2435 -0.0538015 0 200 0
-9.2228 -82.2387 -0.0545701 0 200 0
-9.22167 -82.2339 -0.0553387 0 200 0
-9.22053 -82.2291 -0.0561073 0 200 0
-9.2194 -82.2243 -0.0568758 0 200 0
-9.21827 -82.2195 -0.0576444 0 200 0
-9.21714 -82.2146 -0.058413 0 200 0
-9.21601 -82.2098 -0.0591816 0 200 0
-9.21488 -82.205 -0.0599502 0 200 0
-9.21375 -82.2002 -0.0607188 0 200 0
-9.21262 -82.1954 -0.0614874 0 200 0
-9.21149 -82.1906 -0.062256 0 200 0
-9.21036 -82.1858 -0.0630246 0 200 0
-9.20923 -82.181 -0.0637932 0 200 0
-9.2081 -82.1762 -0.0645618 0 200 0
-9.20697 -82.1714 -0.0653304 0 200 0
-9.20584 -82.1665 -0.066099 0 200 0
-9.20471 -82.1617 -0.0668676 0 200 0
-9.20358 -82.1569 -0.0676361 0 200 0
-9.20245 -82.1521 -0.0684047 0 200 0
-9.20131 -82.1473 -0.0691733 0 200 0
-9.20018 -82.1425 -0.0699419 0 200 0
-9.19905 -82.1377 -0.0707105 0 200 0
-9.19792 -82.1329 -0.0714791 0 200 0
-9.19679 -82.1281 -0.0722477 0 200 0
-9.19566 -82.1233 -0.0730163 0 200 0
-9.19453 -82.1185 -0.0737849 0 200 0
-9.1934 -82.1136 -0.0745535 0 200 0
-9.19227 -82.1088 -0.0753221 0 200 0
-9.19114 -82.104 -0.0760907 0 200 0
-9.71771 -83.1939 0 0 200 0
-9.71557 -83.1895 -0.00078585 0 200 0
-9.71344 -83.185 -0.0015717 0 200 0
-9.71131 -83.1806 -0.00235755 0 200 0
-9.70917 -83.1761 -0.0031434 0 200 0
-9.70704 -83.1717 -0.00392925 0 200 0
-9.7049 -83.1672 -0.0047151 0 200 0
-9.70277 -83.1628 -0.00550095 0 200 0
-9.70064 -83.1583 -0.0062868 0 200 0
-9.6985 -83.1539 -0.00707265 0 200 0
-9.69637 -83.1494 -0.0078585 0 200 0
-9.69424 -83.145 -0.00864435 0 200 0
-9.6921 -83.1405 -0.0094302 0 200 0
-9.68997 -83.1361 -0.010216 0 200 0
-9.68783 -83.1316 -0.0110019 0 200 0
-9.6857 -83.1272 -0.0117877 0 200 0
-9.68357 -83.1227 -0.0125736 0 200 0
-9.68143 -83.1182 -0.0133594 0 200 0
-9.6793 -83.1138 -0.0141453 0 200 0
-9.67717 -83.1093 -0.0149311 0 200 0
-9.67503 -83.1049 -0.015717 0 200 0
-9.6729 -83.1004 -0.0165028 0 200 0
-9.67077 -83.096 -0.0172887 0 200 0
-9.66863 -83.0915 -0.0180745 0 200 0
-9.6665 -83.0871 -0.0188604 0 200 0
-9.66436 -83.0826 -0.0196462 0 200 0
-9.66223 -83.0782 -0.0204321 0 200 0
-9.6601 -83.0737 -0.0212179 0 200 0
-9.65796 -83.0693 -0.0220038 0 200 0
-9.65583 -83.0648 -0.0227896 0 200 0
-9.6537 -83.0603 -0.0235755 0 200 0
-9.65156 -83.0559 -0.0243613 0 200 0
-9.64943 -83.0514 -0.0251472 0 200 0
-9.6473 -83.047 -0.025933 0 200 0
-9.64516 -83.0425 -0.0267189 0 200 0
-9.64303 -83.0381 -0.0275047 0 200 0
-9.64089 -83.0336 -0.0282906 0 200 0
-9.63876 -83.0292 -0.0290764 0 200 0
-9.63663 -83.0247 -0.0298623 0 200 0
-9.63449 -83.0203 -0.0306481 0 200 0
-9.63236 -83.0158 -0.031434 0 200 0
-9.63023 -83.0114 -0.0322198 0 200 0
-9.62809 -83.0069 -0.0330057 0 200 0
-9.62596 -83.0025 -0.0337915 0 200 0
-9.62383 -82.998 -0.0345774 0 200 0
-9.62169 -82.9936 -0.0353632 0 200 0
-9.61956 -82.9891 -0.0361491 0 200 0
-9.61742 -82.9846 -0.0369349 0 200 0
-9.61529 -82.9802 -0.0377208 0 200 0
-9.61316 -82.9757 -0.0385066 0 200 0
-9.61102 -82.9713 -0.0392925 0 200 0
-9.60889 -82.9668 -0.0400783 0 200 0
-9.60676 -82.9624 -0.0408642 0 200 0
-9.60462 -82.9579 -0.04165 0 200 0
-9.60249 -82.9535 -0.0424359 0 200 0
-9.60036 -82.949 -0.0432217 0 200 0
-9.59822 -82.9446 -0.0440076 0 200 0
-9.59609 -82.9401 -0.0447934 0 200 0
-9.59395 -82.9357 -0.0455793 0 200 0
-9.59182 -82.9312 -0.0463651 0 200 0
-9.58969 -82.9268 -0.047151 0 200 0
-9.58755 -82.9223 -0.0479368 0 200 0
-9.58542 -82.9179 -0.0487227 0 200 0
-9.58329 -82.9134 -0.0495085 0 200 0
-9.58115 -82.909 -0.0502944 0 200 0
-9.57902 -82.9045 -0.0510802 0 200 0
-9.57689 -82.9 -0.0518661 0 200 0
-9.57475 -82.8956 -0.0526519 0 200 0
-9.57262 -82.8911 -0.0534378 0 200 0
-9.57048 -82.8867 -0.0542236 0 200 0
-9.56835 -82.8822 -0.0550095 0 200 0
-9.56622 -82.8778 -0.0557953 0 200 0
-9.56408 -82.8733 -0.0565812 0 200 0
-9.56195 -82.8689 -0.057367 0 200 0
-9.55982 -82.8644 -0.0581529 0 200 0
-9.55768 -82.86 -0.0589387 0 200 0
-9.55555 -82.8555 -0.0597246 0 200 0
-9.55341 -82.8511 -0.0605104 0 200 0
-9.55128 -82.8466 -0.0612963 0 200 0
-9.54915 -82.8421 -0.0620821 0 200 0
-9.54701 -82.8377 -0.062868 0 200 0
-9.54488 -82.8332 -0.0636538 0 200 0
-9.54275 -82.8288 -0.0644397 0 200 0
-9.54061 -82.8243 -0.0652255 0 200 0
-9.53848 -82.8199 -0.0660114 0 200 0
-9.53635 -82.8154 -0.0667972 0 200 0
-9.53421 -82.811 -0.0675831 0 200 0
-9.53208 -82.8065 -0.0683689 0 200 0
-9.52994 -82.8021 -0.0691548 0 200 0
-9.52781 -82.7976 -0.0699406 0 200 0
-9.52568 -82.7932 -0.0707265 0 200 0
-9.52354 -82.7887 -0.0715123 0 200 0
-9.52141 -82.7843 -0.0722982 0 200 0
-9.51928 -82.7798 -0.073084 0 200 0
-9.51714 -82.7754 -0.0738699 0 200 0
-9.51501 -82.7709 -0.0746557 0 200 0
-9.51287 -82.7664 -0.0754416 0 200 0
-9.51074 -82.762 -0.0762274 0 200 0
-9.50861 -82.7575 -0.0770133 0 200 0
-9.50647 -82.7531 -0.0777991 0 200 0
-10.1076 -83.8357 0 0 200 0
-10.1052 -83.8315 -0.00100186 0 200 0
-10.1027 -83.8272 -0.00200372 0 200 0
-10.1003 -83.8229 -0.00300559 0 200 0
-10.0979 -83.8187 -0.00400745 0 200 0
-10.0955 -83.8144 -0.00500931 0 200 0
-10.093 -83.8102 -0.00601117 0 200 0
-10.0906 -83.8059 -0.00701304 0 200 0
-10.0882 -83.8017 -0.0080149 0 200 0
-10.0858 -83.7974 -0.00901676 0 200 0
-10.0833 -83.7932 -0.0100186 0 200 0
-10.0809 -83.7889 -0.0110205 0 200 0
-10.0785 -83.7847 -0.0120223 0 200 0
-10.076 -83.7804 -0.0130242 0 200 0
-10.0736 -83.7761 -0.0140261 0 200 0
-10.0712 -83.7719 -0.0150279 0 200 0
-10.0688 -83.7676 -0.0160298 0 200 0
-10.0663 -83.7634 -0.0170317 0 200 0
-10.0639 -83.7591 -0.0180335 0 200 0
-10.0615 -83.7549 -0.0190354 0 200 0
-10.059 -83.7506 -0.0200372 0 200 0
-10.0566 -83.7464 -0.0210391 0 200 0
-10.0542 -83.7421 -0.022041 0 200 0
-10.0518 -83.7378 -0.0230428 0 200 0
-10.0493 -83.7336 -0.0240447 0 200 0
-10.0469 -83.7293 -0.0250466 0 200 0
-10.0445 -83.7251 -0.0260484 0 200 0
-10.0421 -83.7208 -0.0270503 0 200 0
-10.0396 -83.7166 -0.0280521 0 200 0
-10.0372 -83.7123 -0.029054 0 200 0
-10.0348 -83.7081 -0.0300559 0 200 0
-10.0323 -83.7038 -0.0310577 0 200 0
-10.0299 -83.6996 -0.0320596 0 200 0
-10.0275 -83.6953 -0.0330615 0 200 0
-10.0251 -83.691 -0.0340633 0 200 0
-10.0226 -83.6868 -0.0350652 0 200 0
-10.0202 -83.6825 -0.036067 0 200 0
-10.0178 -83.6783 -0.0370689 0 200 0
-10.0153 -83.674 -0.0380708 0 200 0
-10.0129 -83.6698 -0.0390726 0 200 0
-10.0105 -83.6655 -0.0400745 0 200 0
-10.0081 -83.6613 -0.0410764 0 200 0
-10.0056 -83.657 -0.0420782 0 200 0
-10.0032 -83.6528 -0.0430801 0 200 0
-10.0008 -83.6485 -0.0440819 0 200 0
-9.99835 -83.6442 -0.0450838 0 200 0
-9.99593 -83.64 -0.0460857 0 200 0
-9.9935 -83.6357 -0.0470875 0 200 0
-9.99107 -83.6315 -0.0480894 0 200 0
-9.98864 -83.6272 -0.0490912 0 200 0
-9.98622 -83.623 -0.0500931 0 200 0
-9.98379 -83.6187 -0.051095 0 200 0
-9.98136 -83.6145 -0.0520968 0 200 0
-9.97893 -83.6102 -0.0530987 0 200 0
-9.97651 -83.606 -0.0541006 0 200 0
-9.97408 -83.6017 -0.0551024 0 200 0
-9.97165 -83.5974 -0.0561043 0 200 0
-9.96922 -83.5932 -0.0571061 0 200 0
-9.96679 -83.5889 -0.058108 0 200 0
-9.96437 -83.5847 -0.0591099 0 200 0
-9.96194 -83.5804 -0.0601117 0 200 0
-9.95951 -83.5762 -0.0611136 0 200 0
-9.95708 -83.5719 -0.0621155 0 200 0
-9.95466 -83.5677 -0.0631173 0 200 0
-9.95223 -83.5634 -0.0641192 0 200 0
-9.9498 -83.5592 -0.065121 0 200 0
-9.94737 -83.5549 -0.0661229 0 200 0
-9.94495 -83.5506 -0.0671248 0 200 0
-9.94252 -83.5464 -0.0681266 0 200 0
-9.94009 -83.5421 -0.0691285 0 200 0
-9.93766 -83.5379 -0.0701304 0 200 0
-9.93524 -83.5336 -0.0711322 0 200 0
-9.93281 -83.5294 -0.0721341 0 200 0
-9.93038 -83.5251 -0.0731359 0 200 0
-9.92795 -83.5209 -0.0741378 0 200 0
-9.92552 -83.5166 -0.0751397 0 200 0
-9.9231 -83.5124 -0.0761415 0 200 0
-9.92067 -83.5081 -0.0771434 0 200 0
-9.91824 -83.5038 -0.0781453 0 200 0
-9.91581 -83.4996 -0.0791471 0 200 0
-9.91339 -83.4953 -0.080149 0 200 0
-9.91096 -83.4911 -0.0811508 0 200 0
-9.90853 -83.4868 -0.0821527 0 200 0
-9.9061 -83.4826 -0.0831546 0 200 0
-9.90368 -83.4783 -0.0841564 0 200 0
-9.90125 -83.4741 -0.0851583 0 200 0
-9.89882 -83.4698 -0.0861602 0 200 0
-9.89639 -83.4655 -0.087162 0 200 0
-9.89396 -83.4613 -0.0881639 0 200 0
-9.89154 -83.457 -0.0891657 0 200 0
-9.88911 -83.4528 -0.0901676 0 200 0
-9.88668 -83.4485 -0.0911695 0 200 0
-9.88425 -83.4443 -0.0921713 0 200 0
-9.88183 -83.44 -0.0931732 0 200 0
-9.8794 -83.4358 -0.094175 0 200 0
-9.87697 -83.4315 -0.0951769 0 200 0
-9.87454 -83.4273 -0.0961788 0 200 0
-9.87212 -83.423 -0.0971806 0 200 0
-9.86969 -83.4187 -0.0981825 0 200 0
-9.86726 -83.4145 -0.0991844 0 200 0
-10.4846 -84.3599 0 0 200 0
-10.4819 -84.3558 -0.000978276 0 200 0
-10.4792 -84.3517 -0.00195655 0 200 0
-10.4766 -84.3476 -0.00293483 0 200 0
-10.4739 -84.3435 -0.0039131 0 200 0
-10.4712 -84.3393 -0.00489138 0 200 0
-10.4685 -84.3352 -0.00586965 0 200 0
-10.4659 -84.3311 -0.00684793 0 200 0
-10.4632 -84.327 -0.00782621 0 200 0
-10.4605 -84.3229 -0.00880448 0 200 0
-10.4578 -84.3188 -0.00978276 0 200 0
-10.4552 -84.3147 -0.010761 0 200 0
-10.4525 -84.3106 -0.0117393 0 200 0
-10.4498 -84.3065 -0.0127176 0 200 0
-10.4471 -84.3024 -0.0136959 0 200 0
-10.4445 -84.2982 -0.0146741 0 200 0
-10.4418 -84.2941 -0.0156524 0 200 0
-10.4391 -84.29 -0.0166307 0 200 0
-10.4364 -84.2859 -0.017609 0 200 0
-10.4338 -84.2818 -0.0185872 0 200 0
-10.4311 -84.2777 -0.0195655 0 200 0
-10.4284 -84.2736 -0.0205438 0 200 0
-10.4257 -84.2695 -0.0215221 0 200 0
-10.4231 -84.2654 -0.0225003 0 200 0
-10.4204 -84.2613 -0.0234786 0 200 0
-10.4177 -84.2571 -0.0244569 0 200 0
-10.415 -84.253 -0.0254352 0 200 0
-10.4124 -84.2489 -0.0264134 0 200 0
-10.4097 -84.2448 -0.0273917 0 200 0
-10.407 -84.2407 -0.02837 0 200 0
-10.4044 -84.2366 -0.0293483 0 200 0
-10.4017 -84.2325 -0.0303265 0 200 0
-10.399 -84.2284 -0.0313048 0 200 0
-10.3963 -84.2243 -0.0322831 0 200 0
-10.3937 -84.2202 -0.0332614 0 200 0
-10.391 -84.216 -0.0342396 0 200 0
-10.3883 -84.2119 -0.0352179 0 200 0
-10.3856 -84.2078 -0.0361962 0 200 0
-10.383 -84.2037 -0.0371745 0 200 0
-10.3803 -84.1996 -0.0381528 0 200 0
-10.3776 -84.1955 -0.039131 0 200 0
-10.3749 -84.1914 -0.0401093 0 200 0
-10.3723 -84.1873 -0.0410876 0 200 0
-10.3696 -84.1832 -0.0420659 0 200 0
-10.3669 -84.1791 -0.0430441 0 200 0
-10.3642 -84.175 -0.0440224 0 200 0
-10.3616 -84.1708 -0.0450007 0 200 0
-10.3589 -84.1667 -0.045979 0 200 0
-10.3562 -84.1626 -0.0469572 0 200 0
-10.3535 -84.1585 -0.0479355 0 200 0
-10.3509 -84.1544 -0.0489138 0 200 0
-10.3482 -84.1503 -0.0498921 0 200 0
-10.3455 -84.1462 -0.0508703 0 200 0
-10.3428 -84.1421 -0.0518486 0 200 0
-10.3402 -84.138 -0.0528269 0 200 0
-10.3375 -84.1339 -0.0538052 0 200 0
-10.3348 -84.1297 -0.0547834 0 200 0
-10.3321 -84.1256 -0.0557617 0 200 0
-10.3295 -84.1215 -0.05674 0 200 0
-10.3268 -84.1174 -0.0577183 0 200 0
-10.3241 -84.1133 -0.0586965 0 200 0
-10.3214 -84.1092 -0.0596748 0 200 0
-10.3188 -84.1051 -0.0606531 0 200 0
-10.3161 -84.101 -0.0616314 0 200 0
-10.3134 -84.0969 -0.0626096 0 200 0
-10.3107 -84.0928 -0.0635879 0 200 0
-10.3081 -84.0887 -0.0645662 0 200 0
-10.3054 -84.0845 -0.0655445 0 200 0
-10.3027 -84.0804 -0.0665227 0 200 0
-10.3 -84.0763 -0.067501 0 200 0
-10.2974 -84.0722 -0.0684793 0 200 0
-10.2947 -84.0681 -0.0694576 0 200 0
-10.292 -84.064 -0.0704359 0 200 0
-10.2893 -84.0599 -0.0714141 0 200 0
-10.2867 -84.0558 -0.0723924 0 200 0
-10.284 -84.0517 -0.0733707 0 200 0
-10.2813 -84.0476 -0.0743489 0 200 0
-10.2786 -84.0434 -0.0753272 0 200 0
-10.276 -84.0393 -0.0763055 0 200 0
-10.2733 -84.0352 -0.0772838 0 200 0
-10.2706 -84.0311 -0.0782621 0 200 0
-10.2679 -84.027 -0.0792403 0 200 0
-10.2653 -84.0229 -0.0802186 0 200 0
-10.2626 -84.0188 -0.0811969 0 200 0
-10.2599 -84.0147 -0.0821752 0 200 0
-10.2573 -84.0106 -0.0831534 0 200 0
-10.2546 -84.0065 -0.0841317 0 200 0
-10.2519 -84.0023 -0.08511 0 200 0
-10.2492 -83.9982 -0.0860883 0 200 0
-10.2466 -83.9941 -0.0870665 0 200 0
-10.2439 -83.99 -0.0880448 0 200 0
-10.2412 -83.9859 -0.0890231 0 200 0
-10.2385 -83.9818 -0.0900014 0 200 0
-10.2359 -83.9777 -0.0909796 0 200 0
-10.2332 -83.9736 -0.0919579 0 200 0
-10.2305 -83.9695 -0.0929362 0 200 0
-10.2278 -83.9654 -0.0939145 0 200 0
-10.2252 -83.9613 -0.0948927 0 200 0
-10.2225 -83.9571 -0.095871 0 200 0
-10.2198 -83.953 -0.0968493 0 200 0
-10.7484 -84.8567 0 0 200 0
-10.7458 -84.8525 -0.000882729 0 200 0
-10.7431 -84.8484 -0.00176546 0 200 0
-10.7405 -84.8443 -0.00264819 0 200 0
-10.7378 -84.8401 -0.00353091 0 200 0
-10.7351 -84.836 -0.00441364 0 200 0
-10.7325 -84.8318 -0.00529637 0 200 0
-10.7298 -84.8277 -0.0061791 0 200 0
-10.7272 -84.8235 -0.00706183 0 200 0
-10.7245 -84.8194 -0.00794456 0 200 0
-10.7218 -84.8153 -0.00882729 0 200 0
-10.7192 -84.8111 -0.00971002 0 200 0
-10.7165 -84.807 -0.0105927 0 200 0
-10.7139 -84.8028 -0.0114755 0 200 0
-10.7112 -84.7987 -0.0123582 0 200 0
-10.7085 -84.7946 -0.0132409 0 200 0
-10.7059 -84.7904 -0.0141237 0 200 0
-10.7032 -84.7863 -0.0150064 0 200 0
-10.7006 -84.7821 -0.0158891 0 200 0
-10.6979 -84.778 -0.0167718 0 200 0
-10.6952 -84.7739 -0.0176546 0 200 0
-10.6926 -84.7697 -0.0185373 0 200 0
-10.6899 -84.7656 -0.01942 0 200 0
-10.6873 -84.7614 -0.0203028 0 200 0
-10.6846 -84.7573 -0.0211855 0 200 0
-10.6819 -84.7532 -0.0220682 0 200 0
-10.6793 -84.749 -0.0229509 0 200 0
-10.6766 -84.7449 -0.0238337 0 200 0
-10.674 -84.7407 -0.0247164 0 200 0
-10.6713 -84.7366 -0.0255991 0 200 0
-10.6686 -84.7325 -0.0264819 0 200 0
-10.666 -84.7283 -0.0273646 0 200 0
-10.6633 -84.7242 -0.0282473 0 200 0
-10.6607 -84.72 -0.02913 0 200 0
-10.658 -84.7159 -0.0300128 0 200 0
-10.6553 -84.7117 -0.0308955 0 200 0
-10.6527 -84.7076 -0.0317782 0 200 0
-10.65 -84.7035 -0.032661 0 200 0
-10.6474 -84.6993 -0.0335437 0 200 0
-10.6447 -84.6952 -0.0344264 0 200 0
-10.642 -84.691 -0.0353091 0 200 0
-10.6394 -84.6869 -0.0361919 0 200 0
-10.6367 -84.6828 -0.0370746 0 200 0
-10.6341 -84.6786 -0.0379573 0 200 0
-10.6314 -84.6745 -0.0388401 0 200 0
-10.6287 -84.6703 -0.0397228 0 200 0
-10.6261 -84.6662 -0.0406055 0 200 0
-10.6234 -84.6621 -0.0414882 0 200 0
-10.6208 -84.6579 -0.042371 0 200 0
-10.6181 -84.6538 -0.0432537 0 200 0
-10.6154 -84.6496 -0.0441364 0 200 0
-10.6128 -84.6455 -0.0450192 0 200 0
-10.6101 -84.6414 -0.0459019 0 200 0
-10.6075 -84.6372 -0.0467846 0 200 0
-10.6048 -84.6331 -0.0476674 0 200 0
-10.6021 -84.6289 -0.0485501 0 200 0
-10.5995 -84.6248 -0.0494328 0 200 0
-10.5968 -84.6207 -0.0503155 0 200 0
-10.5942 -84.6165 -0.0511983 0 200 0
-10.5915 -84.6124 -0.052081 0 200 0
-10.5888 -84.6082 -0.0529637 0 200 0
-10.5862 -84.6041 -0.0538465 0 200 0
-10.5835 -84.5999 -0.0547292 0 200 0
-10.5809 -84.5958 -0.0556119 0 200 0
-10.5782 -84.5917 -0.0564946 0 200 0
-10.5755 -84.5875 -0.0573774 0 200 0
-10.5729 -84.5834 -0.0582601 0 200 0
-10.5702 -84.5792 -0.0591428 0 200 0
-10.5676 -84.5751 -0.0600256 0 200 0
-10.5649 -84.571 -0.0609083 0 200 0
-10.5622 -84.5668 -0.061791 0 200 0
-10.5596 -84.5627 -0.0626737 0 200 0
-10.5569 -84.5585 -0.0635565 0 200 0
-10.5543 -84.5544 -0.0644392 0 200 0
-10.5516 -84.5503 -0.0653219 0 200 0
-10.5489 -84.5461 -0.0662047 0 200 0
-10.5463 -84.542 -0.0670874 0 200 0
-10.5436 -84.5378 -0.0679701 0 200 0
-10.541 -84.5337 -0.0688528 0 200 0
-10.5383 -84.5296 -0.0697356 0 200 0
