ply
format ascii 1.0
element vertex 1270
property float x
property float y
property float z
property uchar red
property uchar green
property uchar blue
element face 0
property list uchar int vertex_indices
end_header
0.246113 -0.00948121 0.00831604 0 200 0
0.251108 -0.00938529 0.00850084 0 200 0
0.256104 -0.00928936 0.00868564 0 200 0
0.2611 -0.00919343 0.00887044 0 200 0
0.266095 -0.0090975 0.00905524 0 200 0
0.271091 -0.00900157 0.00924004 0 200 0
0.276087 -0.00890564 0.00942484 0 200 0
0.281082 -0.00880972 0.00960964 0 200 0
0.286078 -0.00871379 0.00979444 0 200 0
0.291074 -0.00861786 0.00997925 0 200 0
0.296069 -0.00852193 0.010164 0 200 0
0.301065 -0.008426 0.0103488 0 200 0
0.306061 -0.00833007 0.0105336 0 200 0
0.311056 -0.00823414 0.0107184 0 200 0
0.316052 -0.00813822 0.0109032 0 200 0
0.321048 -0.00804229 0.011088 0 200 0
0.326043 -0.00794636 0.0112729 0 200 0
0.331039 -0.00785043 0.0114577 0 200 0
0.336035 -0.0077545 0.0116425 0 200 0
0.34103 -0.00765857 0.0118273 0 200 0
0.346026 -0.00756264 0.0120121 0 200 0
0.351022 -0.00746672 0.0121969 0 200 0
0.356017 -0.00737079 0.0123817 0 200 0
0.361013 -0.00727486 0.0125665 0 200 0
0.366009 -0.00717893 0.0127513 0 200 0
0.371004 -0.007083 0.0129361 0 200 0
0.376 -0.00698707 0.0131209 0 200 0
0.380996 -0.00689114 0.0133057 0 200 0
0.385991 -0.00679522 0.0134905 0 200 0
0.390987 -0.00669929 0.0136753 0 200 0
0.395983 -0.00660336 0.0138601 0 200 0
0.400978 -0.00650743 0.0140449 0 200 0
0.405974 -0.0064115 0.0142297 0 200 0
0.41097 -0.00631557 0.0144145 0 200 0
0.415965 -0.00621964 0.0145993 0 200 0
0.420961 -0.00612372 0.0147841 0 200 0
0.425957 -0.00602779 0.0149689 0 200 0
0.430952 -0.00593186 0.0151537 0 200 0
0.435948 -0.00583593 0.0153385 0 200 0
0.440944 -0.00574 0.0155233 0 200 0
0.445939 -0.00564407 0.0157081 0 200 0
0.450935 -0.00554814 0.0158929 0 200 0
0.455931 -0.00545222 0.0160777 0 200 0
0.460926 -0.00535629 0.0162625 0 200 0
0.465922 -0.00526036 0.0164473 0 200 0
0.470918 -0.00516443 0.0166321 0 200 0
0.475913 -0.0050685 0.0168169 0 200 0
0.480909 -0.00497257 0.0170017 0 200 0
0.485905 -0.00487664 0.0171865 0 200 0
0.4909 -0.00478072 0.0173713 0 200 0
0.495896 -0.00468479 0.0175561 0 200 0
0.500892 -0.00458886 0.0177409 0 200 0
0.505887 -0.00449293 0.0179257 0 200 0
0.510883 -0.004397 0.0181105 0 200 0
0.515879 -0.00430107 0.0182953 0 200 0
0.0253196 0.00122616 0 0 200 0
0.0303035 0.00148865 0.000303512 0 200 0
0.0352874 0.00175113 0.000607024 0 200 0
0.0402713 0.00201361 0.000910536 0 200 0
0.0452551 0.0022761 0.00121405 0 200 0
0.050239 0.00253858 0.00151756 0 200 0
0.0552229 0.00280106 0.00182107 0 200 0
0.0602067 0.00306354 0.00212458 0 200 0
0.0651906 0.00332603 0.0024281 0 200 0
0.0701745 0.00358851 0.00273161 0 200 0
0.0751584 0.00385099 0.00303512 0 200 0
0.0801422 0.00411347 0.00333863 0 200 0
0.0851261 0.00437596 0.00364214 0 200 0
0.09011 0.00463844 0.00394565 0 200 0
0.0950938 0.00490092 0.00424917 0 200 0
0.100078 0.00516341 0.00455268 0 200 0
0.105062 0.00542589 0.00485619 0 200 0
0.110045 0.00568837 0.0051597 0 200 0
0.115029 0.00595085 0.00546321 0 200 0
0.120013 0.00621334 0.00576673 0 200 0
0.124997 0.00647582 0.00607024 0 200 0
0.129981 0.0067383 0.00637375 0 200 0
0.134965 0.00700079 0.00667726 0 200 0
0.139949 0.00726327 0.00698077 0 200 0
0.144933 0.00752575 0.00728429 0 200 0
0.149916 0.00778823 0.0075878 0 200 0
0.1549 0.00805072 0.00789131 0 200 0
0.159884 0.0083132 0.00819482 0 200 0
0.164868 0.00857568 0.00849833 0 200 0
0.169852 0.00883816 0.00880185 0 200 0
0.174836 0.00910065 0.00910536 0 200 0
0.17982 0.00936313 0.00940887 0 200 0
0.184804 0.00962561 0.00971238 0 200 0
0.189787 0.0098881 0.0100159 0 200 0
0.194771 0.0101506 0.0103194 0 200 0
0.199755 0.0104131 0.0106229 0 200 0
0.204739 0.0106755 0.0109264 0 200 0
0.209723 0.010938 0.0112299 0 200 0
0.214707 0.0112005 0.0115335 0 200 0
0.219691 0.011463 0.011837 0 200 0
0.224675 0.0117255 0.0121405 0 200 0
0.229658 0.011988 0.012444 0 200 0
0.234642 0.0122504 0.0127475 0 200 0
0.239626 0.0125129 0.013051 0 200 0
0.24461 0.0127754 0.0133545 0 200 0
0.249594 0.0130379 0.013658 0 200 0
0.254578 0.0133004 0.0139615 0 200 0
0.259562 0.0135629 0.0142651 0 200 0
0.264546 0.0138253 0.0145686 0 200 0
0.269529 0.0140878 0.0148721 0 200 0
0.274513 0.0143503 0.0151756 0 200 0
0.279497 0.0146128 0.0154791 0 200 0
0.284481 0.0148753 0.0157826 0 200 0
0.289465 0.0151378 0.0160861 0 200 0
0.294449 0.0154002 0.0163896 0 200 0
0.299433 0.0156627 0.0166932 0 200 0
0.304416 0.0159252 0.0169967 0 200 0
0.3094 0.0161877 0.0173002 0 200 0
0.314384 0.0164502 0.0176037 0 200 0
0.319368 0.0167126 0.0179072 0 200 0
0.324352 0.0169751 0.0182107 0 200 0
0.329336 0.0172376 0.0185142 0 200 0
0.33432 0.0175001 0.0188177 0 200 0
0.339304 0.0177626 0.0191213 0 200 0
0.344287 0.0180251 0.0194248 0 200 0
0.349271 0.0182875 0.0197283 0 200 0
0.354255 0.01855 0.0200318 0 200 0
0.359239 0.0188125 0.0203353 0 200 0
0.364223 0.019075 0.0206388 0 200 0
0.369207 0.0193375 0.0209423 0 200 0
0.374191 0.0196 0.0212458 0 200 0
0.379175 0.0198624 0.0215493 0 200 0
0.384158 0.0201249 0.0218529 0 200 0
0.389142 0.0203874 0.0221564 0 200 0
0.394126 0.0206499 0.0224599 0 200 0
0.39911 0.0209124 0.0227634 0 200 0
0.404094 0.0211749 0.0230669 0 200 0
0.409078 0.0214373 0.0233704 0 200 0
0.414062 0.0216998 0.0236739 0 200 0
0.419046 0.0219623 0.0239774 0 200 0
0.424029 0.0222248 0.024281 0 200 0
0.429013 0.0224873 0.0245845 0 200 0
0.433997 0.0227498 0.024888 0 200 0
0.438981 0.0230122 0.0251915 0 200 0
0.443965 0.0232747 0.025495 0 200 0
0.448949 0.0235372 0.0257985 0 200 0
0.453933 0.0237997 0.026102 0 200 0
0.458917 0.0240622 0.0264055 0 200 0
0.4639 0.0243246 0.026709 0 200 0
0.468884 0.0245871 0.0270126 0 200 0
0.473868 0.0248496 0.0273161 0 200 0
0.478852 0.0251121 0.0276196 0 200 0
0.483836 0.0253746 0.0279231 0 200 0
0.48882 0.0256371 0.0282266 0 200 0
0.493804 0.0258995 0.0285301 0 200 0
0.498787 0.026162 0.0288336 0 200 0
0.503771 0.0264245 0.0291371 0 200 0
0.508755 0.026687 0.0294407 0 200 0
0.513739 0.0269495 0.0297442 0 200 0
0.518723 0.027212 0.0300477 0 200 0
-0.0181429 -0.0135254 0 0 200 0
-0.0131577 -0.0132497 0.000268802 0 200 0
-0.00817259 -0.012974 0.000537604 0 200 0
-0.00318744 -0.0126983 0.000806405 0 200 0
0.00179771 -0.0124226 0.00107521 0 200 0
0.00678286 -0.012147 0.00134401 0 200 0
0.011768 -0.0118713 0.00161281 0 200 0
0.0167532 -0.0115956 0.00188161 0 200 0
0.0217383 -0.0113199 0.00215041 0 200 0
0.0267235 -0.0110442 0.00241922 0 200 0
0.0317086 -0.0107685 0.00268802 0 200 0
0.0366938 -0.0104928 0.00295682 0 200 0
0.0416789 -0.0102171 0.00322562 0 200 0
0.0466641 -0.0099414 0.00349442 0 200 0
0.0516492 -0.00966571 0.00376322 0 200 0
0.0566344 -0.00939001 0.00403203 0 200 0
0.0616195 -0.00911432 0.00430083 0 200 0
0.0666047 -0.00883862 0.00456963 0 200 0
0.0715898 -0.00856293 0.00483843 0 200 0
0.076575 -0.00828724 0.00510723 0 200 0
0.0815601 -0.00801154 0.00537604 0 200 0
0.0865453 -0.00773585 0.00564484 0 200 0
0.0915304 -0.00746015 0.00591364 0 200 0
0.0965156 -0.00718446 0.00618244 0 200 0
0.101501 -0.00690877 0.00645124 0 200 0
0.106486 -0.00663307 0.00672004 0 200 0
0.111471 -0.00635738 0.00698885 0 200 0
0.116456 -0.00608168 0.00725765 0 200 0
0.121441 -0.00580599 0.00752645 0 200 0
0.126427 -0.0055303 0.00779525 0 200 0
0.131412 -0.0052546 0.00806405 0 200 0
0.136397 -0.00497891 0.00833285 0 200 0
0.141382 -0.00470321 0.00860166 0 200 0
0.146367 -0.00442752 0.00887046 0 200 0
0.151352 -0.00415183 0.00913926 0 200 0
0.156337 -0.00387613 0.00940806 0 200 0
0.161323 -0.00360044 0.00967686 0 200 0
0.166308 -0.00332474 0.00994566 0 200 0
0.171293 -0.00304905 0.0102145 0 200 0
0.176278 -0.00277336 0.0104833 0 200 0
0.181263 -0.00249766 0.0107521 0 200 0
0.186248 -0.00222197 0.0110209 0 200 0
0.191233 -0.00194627 0.0112897 0 200 0
0.196219 -0.00167058 0.0115585 0 200 0
0.201204 -0.00139489 0.0118273 0 200 0
0.206189 -0.00111919 0.0120961 0 200 0
0.211174 -0.000843499 0.0123649 0 200 0
0.216159 -0.000567805 0.0126337 0 200 0
0.221144 -0.000292111 0.0129025 0 200 0
0.22613 -1.64172e-05 0.0131713 0 200 0
0.231115 0.000259277 0.0134401 0 200 0
0.2361 0.000534971 0.0137089 0 200 0
0.241085 0.000810665 0.0139777 0 200 0
0.24607 0.00108636 0.0142465 0 200 0
0.251055 0.00136205 0.0145153 0 200 0
0.25604 0.00163775 0.0147841 0 200 0
0.261026 0.00191344 0.0150529 0 200 0
0.266011 0.00218913 0.0153217 0 200 0
0.270996 0.00246483 0.0155905 0 200 0
0.275981 0.00274052 0.0158593 0 200 0
0.280966 0.00301622 0.0161281 0 200 0
0.285951 0.00329191 0.0163969 0 200 0
0.290937 0.0035676 0.0166657 0 200 0
0.295922 0.0038433 0.0169345 0 200 0
0.300907 0.00411899 0.0172033 0 200 0
0.305892 0.00439469 0.0174721 0 200 0
0.310877 0.00467038 0.0177409 0 200 0
0.315862 0.00494607 0.0180097 0 200 0
0.320847 0.00522177 0.0182785 0 200 0
0.325833 0.00549746 0.0185473 0 200 0
0.330818 0.00577316 0.0188161 0 200 0
0.335803 0.00604885 0.0190849 0 200 0
0.340788 0.00632454 0.0193537 0 200 0
0.345773 0.00660024 0.0196225 0 200 0
0.350758 0.00687593 0.0198913 0 200 0
0.355743 0.00715163 0.0201601 0 200 0
0.360729 0.00742732 0.0204289 0 200 0
0.365714 0.00770301 0.0206977 0 200 0
0.370699 0.00797871 0.0209665 0 200 0
0.375684 0.0082544 0.0212353 0 200 0
0.380669 0.0085301 0.0215041 0 200 0
0.385654 0.00880579 0.0217729 0 200 0
0.39064 0.00908148 0.0220417 0 200 0
0.395625 0.00935718 0.0223105 0 200 0
0.40061 0.00963287 0.0225793 0 200 0
0.405595 0.00990857 0.0228481 0 200 0
0.41058 0.0101843 0.023117 0 200 0
0.415565 0.01046 0.0233858 0 200 0
0.42055 0.0107356 0.0236546 0 200 0
0.425536 0.0110113 0.0239234 0 200 0
0.430521 0.011287 0.0241922 0 200 0
0.435506 0.0115627 0.024461 0 200 0
0.440491 0.0118384 0.0247298 0 200 0
0.445476 0.0121141 0.0249986 0 200 0
0.450461 0.0123898 0.0252674 0 200 0
0.455447 0.0126655 0.0255362 0 200 0
0.460432 0.0129412 0.025805 0 200 0
0.465417 0.0132169 0.0260738 0 200 0
0.470402 0.0134926 0.0263426 0 200 0
0.475387 0.0137683 0.0266114 0 200 0
-0.523501 -0.135979 0 0 200 0
-0.518519 -0.136392 0.000102508 0 200 0
-0.513537 -0.136805 0.000205015 0 200 0
-0.508555 -0.137219 0.000307523 0 200 0
-0.503573 -0.137632 0.000410031 0 200 0
-0.498592 -0.138045 0.000512538 0 200 0
-0.49361 -0.138458 0.000615046 0 200 0
-0.488628 -0.138872 0.000717554 0 200 0
-0.483646 -0.139285 0.000820061 0 200 0
-0.478664 -0.139698 0.000922569 0 200 0
-0.473682 -0.140111 0.00102508 0 200 0
-0.4687 -0.140524 0.00112758 0 200 0
-0.463719 -0.140938 0.00123009 0 200 0
-0.458737 -0.141351 0.0013326 0 200 0
-0.453755 -0.141764 0.00143511 0 200 0
-0.448773 -0.142177 0.00153761 0 200 0
-0.443791 -0.14259 0.00164012 0 200 0
-0.438809 -0.143004 0.00174263 0 200 0
-0.433828 -0.143417 0.00184514 0 200 0
-0.428846 -0.14383 0.00194765 0 200 0
-0.423864 -0.144243 0.00205015 0 200 0
-0.418882 -0.144657 0.00215266 0 200 0
-0.4139 -0.14507 0.00225517 0 200 0
-0.408918 -0.145483 0.00235768 0 200 0
-0.403937 -0.145896 0.00246018 0 200 0
-0.398955 -0.146309 0.00256269 0 200 0
-0.393973 -0.146723 0.0026652 0 200 0
-0.388991 -0.147136 0.00276771 0 200 0
-0.384009 -0.147549 0.00287021 0 200 0
-0.379027 -0.147962 0.00297272 0 200 0
-0.374045 -0.148376 0.00307523 0 200 0
-0.369064 -0.148789 0.00317774 0 200 0
-0.364082 -0.149202 0.00328025 0 200 0
-0.3591 -0.149615 0.00338275 0 200 0
-0.354118 -0.150028 0.00348526 0 200 0
-0.349136 -0.150442 0.00358777 0 200 0
-0.344154 -0.150855 0.00369028 0 200 0
-0.339173 -0.151268 0.00379278 0 200 0
-0.334191 -0.151681 0.00389529 0 200 0
-0.329209 -0.152094 0.0039978 0 200 0
-0.324227 -0.152508 0.00410031 0 200 0
-0.319245 -0.152921 0.00420281 0 200 0
-0.314263 -0.153334 0.00430532 0 200 0
-0.309282 -0.153747 0.00440783 0 200 0
-0.3043 -0.154161 0.00451034 0 200 0
-0.299318 -0.154574 0.00461284 0 200 0
-0.294336 -0.154987 0.00471535 0 200 0
-0.289354 -0.1554 0.00481786 0 200 0
-0.284372 -0.155813 0.00492037 0 200 0
-0.27939 -0.156227 0.00502288 0 200 0
-0.274409 -0.15664 0.00512538 0 200 0
-0.269427 -0.157053 0.00522789 0 200 0
-0.264445 -0.157466 0.0053304 0 200 0
-0.259463 -0.15788 0.00543291 0 200 0
-0.254481 -0.158293 0.00553541 0 200 0
-0.249499 -0.158706 0.00563792 0 200 0
-0.244518 -0.159119 0.00574043 0 200 0
-0.239536 -0.159532 0.00584294 0 200 0
-0.234554 -0.159946 0.00594544 0 200 0
-0.229572 -0.160359 0.00604795 0 200 0
-0.22459 -0.160772 0.00615046 0 200 0
-0.219608 -0.161185 0.00625297 0 200 0
-0.214627 -0.161598 0.00635547 0 200 0
-0.209645 -0.162012 0.00645798 0 200 0
-0.204663 -0.162425 0.00656049 0 200 0
-0.199681 -0.162838 0.006663 0 200 0
-0.194699 -0.163251 0.00676551 0 200 0
-0.189717 -0.163665 0.00686801 0 200 0
-0.184736 -0.164078 0.00697052 0 200 0
-0.179754 -0.164491 0.00707303 0 200 0
-0.174772 -0.164904 0.00717554 0 200 0
-0.16979 -0.165317 0.00727804 0 200 0
-0.164808 -0.165731 0.00738055 0 200 0
-0.159826 -0.166144 0.00748306 0 200 0
-0.154844 -0.166557 0.00758557 0 200 0
-0.149863 -0.16697 0.00768807 0 200 0
-0.144881 -0.167383 0.00779058 0 200 0
-0.139899 -0.167797 0.00789309 0 200 0
-0.134917 -0.16821 0.0079956 0 200 0
-0.129935 -0.168623 0.0080981 0 200 0
-0.124953 -0.169036 0.00820061 0 200 0
-0.119972 -0.16945 0.00830312 0 200 0
-0.11499 -0.169863 0.00840563 0 200 0
-0.110008 -0.170276 0.00850814 0 200 0
-0.105026 -0.170689 0.00861064 0 200 0
-0.100044 -0.171102 0.00871315 0 200 0
-0.0950624 -0.171516 0.00881566 0 200 0
-0.0900805 -0.171929 0.00891817 0 200 0
-0.0850987 -0.172342 0.00902067 0 200 0
-0.0801168 -0.172755 0.00912318 0 200 0
-0.075135 -0.173169 0.00922569 0 200 0
-0.0701532 -0.173582 0.0093282 0 200 0
-0.0651713 -0.173995 0.0094307 0 200 0
-0.0601895 -0.174408 0.00953321 0 200 0
-0.0552076 -0.174821 0.00963572 0 200 0
-0.0502258 -0.175235 0.00973823 0 200 0
-0.0452439 -0.175648 0.00984074 0 200 0
-0.0402621 -0.176061 0.00994324 0 200 0
-0.0352803 -0.176474 0.0100458 0 200 0
-0.0302984 -0.176887 0.0101483 0 200 0
-1.45227 -0.250817 0 0 200 0
-1.44734 -0.250325 -0.000721189 0 200 0
-1.44242 -0.249832 -0.00144238 0 200 0
-1.4375 -0.24934 -0.00216357 0 200 0
-1.43257 -0.248848 -0.00288475 0 200 0
-1.42765 -0.248356 -0.00360594 0 200 0
-1.42273 -0.247863 -0.00432713 0 200 0
-1.4178 -0.247371 -0.00504832 0 200 0
-1.41288 -0.246879 -0.00576951 0 200 0
-1.40796 -0.246386 -0.0064907 0 200 0
-1.40304 -0.245894 -0.00721189 0 200 0
-1.39811 -0.245402 -0.00793308 0 200 0
-1.39319 -0.244909 -0.00865426 0 200 0
-1.38827 -0.244417 -0.00937545 0 200 0
-1.38334 -0.243925 -0.0100966 0 200 0
-1.37842 -0.243432 -0.0108178 0 200 0
-1.3735 -0.24294 -0.011539 0 200 0
-1.36857 -0.242448 -0.0122602 0 200 0
-1.36365 -0.241955 -0.0129814 0 200 0
-1.35873 -0.241463 -0.0137026 0 200 0
-1.3538 -0.240971 -0.0144238 0 200 0
-1.34888 -0.240478 -0.015145 0 200 0
-1.34396 -0.239986 -0.0158662 0 200 0
-1.33903 -0.239494 -0.0165873 0 200 0
-1.33411 -0.239001 -0.0173085 0 200 0
-1.32919 -0.238509 -0.0180297 0 200 0
-1.32426 -0.238017 -0.0187509 0 200 0
-1.31934 -0.237524 -0.0194721 0 200 0
-1.31442 -0.237032 -0.0201933 0 200 0
-1.3095 -0.23654 -0.0209145 0 200 0
-1.30457 -0.236047 -0.0216357 0 200 0
-1.29965 -0.235555 -0.0223568 0 200 0
-1.29473 -0.235063 -0.023078 0 200 0
-1.2898 -0.23457 -0.0237992 0 200 0
-1.28488 -0.234078 -0.0245204 0 200 0
-1.27996 -0.233586 -0.0252416 0 200 0
-1.27503 -0.233093 -0.0259628 0 200 0
-1.27011 -0.232601 -0.026684 0 200 0
-1.26519 -0.232109 -0.0274052 0 200 0
-1.26026 -0.231616 -0.0281264 0 200 0
-1.25534 -0.231124 -0.0288475 0 200 0
-1.25042 -0.230632 -0.0295687 0 200 0
-1.24549 -0.23014 -0.0302899 0 200 0
-1.24057 -0.229647 -0.0310111 0 200 0
-1.23565 -0.229155 -0.0317323 0 200 0
-1.23072 -0.228663 -0.0324535 0 200 0
-1.2258 -0.22817 -0.0331747 0 200 0
-1.22088 -0.227678 -0.0338959 0 200 0
-1.21596 -0.227186 -0.0346171 0 200 0
-1.21103 -0.226693 -0.0353382 0 200 0
-1.20611 -0.226201 -0.0360594 0 200 0
-1.20119 -0.225709 -0.0367806 0 200 0
-1.19626 -0.225216 -0.0375018 0 200 0
-1.19134 -0.224724 -0.038223 0 200 0
-1.18642 -0.224232 -0.0389442 0 200 0
-1.18149 -0.223739 -0.0396654 0 200 0
-1.17657 -0.223247 -0.0403866 0 200 0
-1.17165 -0.222755 -0.0411078 0 200 0
-1.16672 -0.222262 -0.0418289 0 200 0
-1.1618 -0.22177 -0.0425501 0 200 0
-1.15688 -0.221278 -0.0432713 0 200 0
-1.15195 -0.220785 -0.0439925 0 200 0
-1.14703 -0.220293 -0.0447137 0 200 0
-1.14211 -0.219801 -0.0454349 0 200 0
-1.13718 -0.219308 -0.0461561 0 200 0
-1.13226 -0.218816 -0.0468773 0 200 0
-1.12734 -0.218324 -0.0475985 0 200 0
-1.12242 -0.217831 -0.0483196 0 200 0
-1.11749 -0.217339 -0.0490408 0 200 0
-1.11257 -0.216847 -0.049762 0 200 0
-1.10765 -0.216354 -0.0504832 0 200 0
-1.10272 -0.215862 -0.0512044 0 200 0
-1.0978 -0.21537 -0.0519256 0 200 0
-1.09288 -0.214877 -0.0526468 0 200 0
-1.08795 -0.214385 -0.053368 0 200 0
-1.08303 -0.213893 -0.0540892 0 200 0
-1.07811 -0.2134 -0.0548103 0 200 0
-1.07318 -0.212908 -0.0555315 0 200 0
-1.06826 -0.212416 -0.0562527 0 200 0
-1.06334 -0.211924 -0.0569739 0 200 0
-1.05841 -0.211431 -0.0576951 0 200 0
-1.05349 -0.210939 -0.0584163 0 200 0
-1.04857 -0.210447 -0.0591375 0 200 0
-1.04364 -0.209954 -0.0598587 0 200 0
-1.03872 -0.209462 -0.0605799 0 200 0
-1.0338 -0.20897 -0.061301 0 200 0
-1.02888 -0.208477 -0.0620222 0 200 0
-1.02395 -0.207985 -0.0627434 0 200 0
-1.01903 -0.207493 -0.0634646 0 200 0
-1.01411 -0.207 -0.0641858 0 200 0
-1.00918 -0.206508 -0.064907 0 200 0
-1.00426 -0.206016 -0.0656282 0 200 0
-0.999336 -0.205523 -0.0663494 0 200 0
-0.994413 -0.205031 -0.0670706 0 200 0
-0.98949 -0.204539 -0.0677917 0 200 0
-0.984567 -0.204046 -0.0685129 0 200 0
-0.979643 -0.203554 -0.0692341 0 200 0
-0.97472 -0.203062 -0.0699553 0 200 0
-0.969797 -0.202569 -0.0706765 0 200 0
-0.964874 -0.202077 -0.0713977 0 200 0
-2.18401 -0.297209 0 0 200 0
-2.17919 -0.296988 -0.00128778 0 200 0
-2.17436 -0.296766 -0.00257557 0 200 0
-2.16953 -0.296545 -0.00386335 0 200 0
-2.16471 -0.296324 -0.00515114 0 200 0
-2.15988 -0.296103 -0.00643892 0 200 0
-2.15505 -0.295881 -0.00772671 0 200 0
-2.15023 -0.29566 -0.00901449 0 200 0
-2.1454 -0.295439 -0.0103023 0 200 0
-2.14058 -0.295217 -0.0115901 0 200 0
-2.13575 -0.294996 -0.0128778 0 200 0
-2.13092 -0.294775 -0.0141656 0 200 0
-2.1261 -0.294553 -0.0154534 0 200 0
-2.12127 -0.294332 -0.0167412 0 200 0
-2.11644 -0.294111 -0.018029 0 200 0
-2.11162 -0.29389 -0.0193168 0 200 0
-2.10679 -0.293668 -0.0206046 0 200 0
-2.10197 -0.293447 -0.0218923 0 200 0
-2.09714 -0.293226 -0.0231801 0 200 0
-2.09231 -0.293004 -0.0244679 0 200 0
-2.08749 -0.292783 -0.0257557 0 200 0
-2.08266 -0.292562 -0.0270435 0 200 0
-2.07783 -0.29234 -0.0283313 0 200 0
-2.07301 -0.292119 -0.029619 0 200 0
-2.06818 -0.291898 -0.0309068 0 200 0
-2.06336 -0.291676 -0.0321946 0 200 0
-2.05853 -0.291455 -0.0334824 0 200 0
-2.0537 -0.291234 -0.0347702 0 200 0
-2.04888 -0.291013 -0.036058 0 200 0
-2.04405 -0.290791 -0.0373458 0 200 0
-2.03922 -0.29057 -0.0386335 0 200 0
-2.0344 -0.290349 -0.0399213 0 200 0
-2.02957 -0.290127 -0.0412091 0 200 0
-2.02475 -0.289906 -0.0424969 0 200 0
-2.01992 -0.289685 -0.0437847 0 200 0
-2.01509 -0.289463 -0.0450725 0 200 0
-2.01027 -0.289242 -0.0463603 0 200 0
-2.00544 -0.289021 -0.047648 0 200 0
-2.00061 -0.288799 -0.0489358 0 200 0
-1.99579 -0.288578 -0.0502236 0 200 0
-1.99096 -0.288357 -0.0515114 0 200 0
-1.98614 -0.288136 -0.0527992 0 200 0
-1.98131 -0.287914 -0.054087 0 200 0
-1.97648 -0.287693 -0.0553747 0 200 0
-1.97166 -0.287472 -0.0566625 0 200 0
-1.96683 -0.28725 -0.0579503 0 200 0
-1.962 -0.287029 -0.0592381 0 200 0
-1.95718 -0.286808 -0.0605259 0 200 0
-1.95235 -0.286586 -0.0618137 0 200 0
-1.94753 -0.286365 -0.0631014 0 200 0
-1.9427 -0.286144 -0.0643892 0 200 0
-1.93787 -0.285922 -0.065677 0 200 0
-1.93305 -0.285701 -0.0669648 0 200 0
-1.92822 -0.28548 -0.0682526 0 200 0
-1.92339 -0.285259 -0.0695404 0 200 0
-1.91857 -0.285037 -0.0708282 0 200 0
-1.91374 -0.284816 -0.0721159 0 200 0
-1.90892 -0.284595 -0.0734037 0 200 0
-1.90409 -0.284373 -0.0746915 0 200 0
-1.89926 -0.284152 -0.0759793 0 200 0
-1.89444 -0.283931 -0.0772671 0 200 0
-1.88961 -0.283709 -0.0785549 0 200 0
-1.88478 -0.283488 -0.0798426 0 200 0
-1.87996 -0.283267 -0.0811304 0 200 0
-1.87513 -0.283046 -0.0824182 0 200 0
-1.87031 -0.282824 -0.083706 0 200 0
-1.86548 -0.282603 -0.0849938 0 200 0
-1.86065 -0.282382 -0.0862816 0 200 0
-1.85583 -0.28216 -0.0875694 0 200 0
-1.851 -0.281939 -0.0888571 0 200 0
-1.84617 -0.281718 -0.0901449 0 200 0
-1.84135 -0.281496 -0.0914327 0 200 0
-1.83652 -0.281275 -0.0927205 0 200 0
-1.8317 -0.281054 -0.0940083 0 200 0
-1.82687 -0.280832 -0.0952961 0 200 0
-1.82204 -0.280611 -0.0965839 0 200 0
-1.81722 -0.28039 -0.0978716 0 200 0
-1.81239 -0.280169 -0.0991594 0 200 0
-1.80756 -0.279947 -0.100447 0 200 0
-1.80274 -0.279726 -0.101735 0 200 0
-1.79791 -0.279505 -0.103023 0 200 0
-1.79309 -0.279283 -0.104311 0 200 0
-1.78826 -0.279062 -0.105598 0 200 0
-1.78343 -0.278841 -0.106886 0 200 0
-1.77861 -0.278619 -0.108174 0 200 0
-1.77378 -0.278398 -0.109462 0 200 0
-1.76895 -0.278177 -0.110749 0 200 0
-1.76413 -0.277956 -0.112037 0 200 0
-1.7593 -0.277734 -0.113325 0 200 0
-1.75448 -0.277513 -0.114613 0 200 0
-1.74965 -0.277292 -0.115901 0 200 0
-1.74482 -0.27707 -0.117188 0 200 0
-1.74 -0.276849 -0.118476 0 200 0
-1.73517 -0.276628 -0.119764 0 200 0
-1.73034 -0.276406 -0.121052 0 200 0
-1.72552 -0.276185 -0.12234 0 200 0
-1.72069 -0.275964 -0.123627 0 200 0
-1.71587 -0.275742 -0.124915 0 200 0
-1.71104 -0.275521 -0.126203 0 200 0
-1.70621 -0.2753 -0.127491 0 200 0
-2.61821 -0.273797 0 0 200 0
-2.61335 -0.273464 -0.00115036 0 200 0
-2.6085 -0.27313 -0.00230071 0 200 0
-2.60365 -0.272797 -0.00345107 0 200 0
-2.59879 -0.272464 -0.00460143 0 200 0
-2.59394 -0.272131 -0.00575178 0 200 0
-2.58908 -0.271797 -0.00690214 0 200 0
-2.58423 -0.271464 -0.00805249 0 200 0
-2.57937 -0.271131 -0.00920285 0 200 0
-2.57452 -0.270798 -0.0103532 0 200 0
-2.56966 -0.270465 -0.0115036 0 200 0
-2.56481 -0.270131 -0.0126539 0 200 0
-2.55996 -0.269798 -0.0138043 0 200 0
-2.5551 -0.269465 -0.0149546 0 200 0
-2.55025 -0.269132 -0.016105 0 200 0
-2.54539 -0.268798 -0.0172553 0 200 0
-2.54054 -0.268465 -0.0184057 0 200 0
-2.53568 -0.268132 -0.0195561 0 200 0
-2.53083 -0.267799 -0.0207064 0 200 0
-2.52597 -0.267466 -0.0218568 0 200 0
-2.52112 -0.267132 -0.0230071 0 200 0
-2.51627 -0.266799 -0.0241575 0 200 0
-2.51141 -0.266466 -0.0253078 0 200 0
-2.50656 -0.266133 -0.0264582 0 200 0
-2.5017 -0.265799 -0.0276086 0 200 0
-2.49685 -0.265466 -0.0287589 0 200 0
-2.49199 -0.265133 -0.0299093 0 200 0
-2.48714 -0.2648 -0.0310596 0 200 0
-2.48228 -0.264466 -0.03221 0 200 0
-2.47743 -0.264133 -0.0333603 0 200 0
-2.47258 -0.2638 -0.0345107 0 200 0
-2.46772 -0.263467 -0.035661 0 200 0
-2.46287 -0.263134 -0.0368114 0 200 0
-2.45801 -0.2628 -0.0379618 0 200 0
-2.45316 -0.262467 -0.0391121 0 200 0
-2.4483 -0.262134 -0.0402625 0 200 0
-2.44345 -0.261801 -0.0414128 0 200 0
-2.43859 -0.261467 -0.0425632 0 200 0
-2.43374 -0.261134 -0.0437135 0 200 0
-2.42889 -0.260801 -0.0448639 0 200 0
-2.42403 -0.260468 -0.0460143 0 200 0
-2.41918 -0.260135 -0.0471646 0 200 0
-2.41432 -0.259801 -0.048315 0 200 0
-2.40947 -0.259468 -0.0494653 0 200 0
-2.40461 -0.259135 -0.0506157 0 200 0
-2.39976 -0.258802 -0.051766 0 200 0
-2.3949 -0.258468 -0.0529164 0 200 0
-2.39005 -0.258135 -0.0540667 0 200 0
-2.3852 -0.257802 -0.0552171 0 200 0
-2.38034 -0.257469 -0.0563675 0 200 0
-2.37549 -0.257136 -0.0575178 0 200 0
-2.37063 -0.256802 -0.0586682 0 200 0
-2.36578 -0.256469 -0.0598185 0 200 0
-2.36092 -0.256136 -0.0609689 0 200 0
-2.35607 -0.255803 -0.0621192 0 200 0
-2.35121 -0.255469 -0.0632696 0 200 0
-2.34636 -0.255136 -0.06442 0 200 0
-2.34151 -0.254803 -0.0655703 0 200 0
-2.33665 -0.25447 -0.0667207 0 200 0
-2.3318 -0.254137 -0.067871 0 200 0
-2.32694 -0.253803 -0.0690214 0 200 0
-2.32209 -0.25347 -0.0701717 0 200 0
-2.31723 -0.253137 -0.0713221 0 200 0
-2.31238 -0.252804 -0.0724724 0 200 0
-2.30752 -0.25247 -0.0736228 0 200 0
-2.30267 -0.252137 -0.0747732 0 200 0
-2.29782 -0.251804 -0.0759235 0 200 0
-2.29296 -0.251471 -0.0770739 0 200 0
-2.28811 -0.251137 -0.0782242 0 200 0
-2.28325 -0.250804 -0.0793746 0 200 0
-2.2784 -0.250471 -0.0805249 0 200 0
-2.27354 -0.250138 -0.0816753 0 200 0
-2.26869 -0.249805 -0.0828257 0 200 0
-2.26383 -0.249471 -0.083976 0 200 0
-2.25898 -0.249138 -0.0851264 0 200 0
-2.25413 -0.248805 -0.0862767 0 200 0
-2.24927 -0.248472 -0.0874271 0 200 0
-2.24442 -0.248138 -0.0885774 0 200 0
-2.23956 -0.247805 -0.0897278 0 200 0
-2.23471 -0.247472 -0.0908782 0 200 0
-2.22985 -0.247139 -0.0920285 0 200 0
-2.225 -0.246806 -0.0931789 0 200 0
-2.22014 -0.246472 -0.0943292 0 200 0
-2.21529 -0.246139 -0.0954796 0 200 0
-2.21044 -0.245806 -0.0966299 0 200 0
-2.20558 -0.245473 -0.0977803 0 200 0
-2.20073 -0.245139 -0.0989306 0 200 0
-2.19587 -0.244806 -0.100081 0 200 0
-2.19102 -0.244473 -0.101231 0 200 0
-2.18616 -0.24414 -0.102382 0 200 0
-2.18131 -0.243807 -0.103532 0 200 0
-2.17645 -0.243473 -0.104682 0 200 0
-2.1716 -0.24314 -0.105833 0 200 0
-2.16675 -0.242807 -0.106983 0 200 0
-2.16189 -0.242474 -0.108133 0 200 0
-2.15704 -0.24214 -0.109284 0 200 0
-2.15218 -0.241807 -0.110434 0 200 0
-2.14733 -0.241474 -0.111585 0 200 0
-2.14247 -0.241141 -0.112735 0 200 0
-2.13762 -0.240807 -0.113885 0 200 0
-2.839 -0.177386 0 0 200 0
-2.83408 -0.177275 -0.000879086 0 200 0
-2.82915 -0.177164 -0.00175817 0 200 0
-2.82423 -0.177054 -0.00263726 0 200 0
-2.81931 -0.176943 -0.00351634 0 200 0
-2.81439 -0.176832 -0.00439543 0 200 0
-2.80947 -0.176722 -0.00527452 0 200 0
-2.80455 -0.176611 -0.0061536 0 200 0
-2.79963 -0.1765 -0.00703269 0 200 0
-2.79471 -0.176389 -0.00791177 0 200 0
-2.78979 -0.176279 -0.00879086 0 200 0
-2.78487 -0.176168 -0.00966994 0 200 0
-2.77995 -0.176057 -0.010549 0 200 0
-2.77502 -0.175946 -0.0114281 0 200 0
-2.7701 -0.175836 -0.0123072 0 200 0
-2.76518 -0.175725 -0.0131863 0 200 0
-2.76026 -0.175614 -0.0140654 0 200 0
-2.75534 -0.175503 -0.0149445 0 200 0
-2.75042 -0.175393 -0.0158235 0 200 0
-2.7455 -0.175282 -0.0167026 0 200 0
-2.74058 -0.175171 -0.0175817 0 200 0
-2.73566 -0.17506 -0.0184608 0 200 0
-2.73074 -0.17495 -0.0193399 0 200 0
-2.72582 -0.174839 -0.020219 0 200 0
-2.7209 -0.174728 -0.0210981 0 200 0
-2.71597 -0.174617 -0.0219771 0 200 0
-2.71105 -0.174507 -0.0228562 0 200 0
-2.70613 -0.174396 -0.0237353 0 200 0
-2.70121 -0.174285 -0.0246144 0 200 0
-2.69629 -0.174174 -0.0254935 0 200 0
-2.69137 -0.174064 -0.0263726 0 200 0
-2.68645 -0.173953 -0.0272517 0 200 0
-2.68153 -0.173842 -0.0281307 0 200 0
-2.67661 -0.173731 -0.0290098 0 200 0
-2.67169 -0.173621 -0.0298889 0 200 0
-2.66677 -0.17351 -0.030768 0 200 0
-2.66184 -0.173399 -0.0316471 0 200 0
-2.65692 -0.173289 -0.0325262 0 200 0
-2.652 -0.173178 -0.0334053 0 200 0
-2.64708 -0.173067 -0.0342843 0 200 0
-2.64216 -0.172956 -0.0351634 0 200 0
-2.63724 -0.172846 -0.0360425 0 200 0
-2.63232 -0.172735 -0.0369216 0 200 0
-2.6274 -0.172624 -0.0378007 0 200 0
-2.62248 -0.172513 -0.0386798 0 200 0
-2.61756 -0.172403 -0.0395589 0 200 0
-2.61264 -0.172292 -0.0404379 0 200 0
-2.60772 -0.172181 -0.041317 0 200 0
-2.60279 -0.17207 -0.0421961 0 200 0
-2.59787 -0.17196 -0.0430752 0 200 0
-2.59295 -0.171849 -0.0439543 0 200 0
-2.58803 -0.171738 -0.0448334 0 200 0
-2.58311 -0.171627 -0.0457125 0 200 0
-2.57819 -0.171517 -0.0465916 0 200 0
-2.57327 -0.171406 -0.0474706 0 200 0
-2.56835 -0.171295 -0.0483497 0 200 0
-2.56343 -0.171184 -0.0492288 0 200 0
-2.55851 -0.171074 -0.0501079 0 200 0
-2.55359 -0.170963 -0.050987 0 200 0
-2.54866 -0.170852 -0.0518661 0 200 0
-2.54374 -0.170741 -0.0527451 0 200 0
-2.53882 -0.170631 -0.0536242 0 200 0
-2.5339 -0.17052 -0.0545033 0 200 0
-2.52898 -0.170409 -0.0553824 0 200 0
-2.52406 -0.170299 -0.0562615 0 200 0
-2.51914 -0.170188 -0.0571406 0 200 0
-2.51422 -0.170077 -0.0580197 0 200 0
-2.5093 -0.169966 -0.0588988 0 200 0
-2.50438 -0.169856 -0.0597778 0 200 0
-2.49946 -0.169745 -0.0606569 0 200 0
-2.49454 -0.169634 -0.061536 0 200 0
-2.48961 -0.169523 -0.0624151 0 200 0
-2.48469 -0.169413 -0.0632942 0 200 0
-2.47977 -0.169302 -0.0641733 0 200 0
-2.47485 -0.169191 -0.0650524 0 200 0
-2.46993 -0.16908 -0.0659314 0 200 0
-2.46501 -0.16897 -0.0668105 0 200 0
-2.46009 -0.168859 -0.0676896 0 200 0
-2.45517 -0.168748 -0.0685687 0 200 0
-2.45025 -0.168637 -0.0694478 0 200 0
-2.44533 -0.168527 -0.0703269 0 200 0
-2.44041 -0.168416 -0.071206 0 200 0
-2.43548 -0.168305 -0.072085 0 200 0
-2.43056 -0.168194 -0.0729641 0 200 0
-2.42564 -0.168084 -0.0738432 0 200 0
-2.42072 -0.167973 -0.0747223 0 200 0
-2.4158 -0.167862 -0.0756014 0 200 0
-2.41088 -0.167751 -0.0764805 0 200 0
-2.40596 -0.167641 -0.0773595 0 200 0
-2.40104 -0.16753 -0.0782386 0 200 0
-2.39612 -0.167419 -0.0791177 0 200 0
-2.3912 -0.167309 -0.0799968 0 200 0
-2.38628 -0.167198 -0.0808759 0 200 0
-2.38136 -0.167087 -0.081755 0 200 0
-2.37643 -0.166976 -0.0826341 0 200 0
-2.37151 -0.166866 -0.0835132 0 200 0
-2.36659 -0.166755 -0.0843922 0 200 0
-2.36167 -0.166644 -0.0852713 0 200 0
-2.35675 -0.166533 -0.0861504 0 200 0
-2.35183 -0.166423 -0.0870295 0 200 0
-2.97075 -0.0204231 0 0 200 0
-2.96582 -0.0199836 -0.000715494 0 200 0
-2.96089 -0.0195442 -0.00143099 0 200 0
-2.95596 -0.0191047 -0.00214648 0 200 0
-2.95103 -0.0186653 -0.00286198 0 200 0
-2.9461 -0.0182258 -0.00357747 0 200 0
-2.94117 -0.0177863 -0.00429297 0 200 0
-2.93624 -0.0173469 -0.00500846 0 200 0
-2.93132 -0.0169074 -0.00572395 0 200 0
-2.92639 -0.016468 -0.00643945 0 200 0
-2.92146 -0.0160285 -0.00715494 0 200 0
-2.91653 -0.0155891 -0.00787044 0 200 0
-2.9116 -0.0151496 -0.00858593 0 200 0
-2.90667 -0.0147102 -0.00930143 0 200 0
-2.90174 -0.0142707 -0.0100169 0 200 0
-2.89681 -0.0138313 -0.0107324 0 200 0
-2.89188 -0.0133918 -0.0114479 0 200 0
-2.88695 -0.0129524 -0.0121634 0 200 0
-2.88203 -0.0125129 -0.0128789 0 200 0
-2.8771 -0.0120735 -0.0135944 0 200 0
-2.87217 -0.011634 -0.0143099 0 200 0
-2.86724 -0.0111946 -0.0150254 0 200 0
-2.86231 -0.0107551 -0.0157409 0 200 0
-2.85738 -0.0103157 -0.0164564 0 200 0
-2.85245 -0.00987621 -0.0171719 0 200 0
-2.84752 -0.00943676 -0.0178874 0 200 0
-2.84259 -0.00899731 -0.0186029 0 200 0
-2.83766 -0.00855786 -0.0193183 0 200 0
-2.83274 -0.0081184 -0.0200338 0 200 0
-2.82781 -0.00767895 -0.0207493 0 200 0
-2.82288 -0.0072395 -0.0214648 0 200 0
-2.81795 -0.00680005 -0.0221803 0 200 0
-2.81302 -0.0063606 -0.0228958 0 200 0
-2.80809 -0.00592114 -0.0236113 0 200 0
-2.80316 -0.00548169 -0.0243268 0 200 0
-2.79823 -0.00504224 -0.0250423 0 200 0
-2.7933 -0.00460279 -0.0257578 0 200 0
-2.78837 -0.00416334 -0.0264733 0 200 0
-2.78345 -0.00372388 -0.0271888 0 200 0
-2.77852 -0.00328443 -0.0279043 0 200 0
-2.77359 -0.00284498 -0.0286198 0 200 0
-2.76866 -0.00240553 -0.0293353 0 200 0
-2.76373 -0.00196608 -0.0300508 0 200 0
-2.7588 -0.00152662 -0.0307663 0 200 0
-2.75387 -0.00108717 -0.0314818 0 200 0
-2.74894 -0.000647721 -0.0321972 0 200 0
-2.74401 -0.000208269 -0.0329127 0 200 0
-2.73908 0.000231183 -0.0336282 0 200 0
-2.73416 0.000670635 -0.0343437 0 200 0
-2.72923 0.00111009 -0.0350592 0 200 0
-2.7243 0.00154954 -0.0357747 0 200 0
-2.71937 0.00198899 -0.0364902 0 200 0
-2.71444 0.00242844 -0.0372057 0 200 0
-2.70951 0.00286789 -0.0379212 0 200 0
-2.70458 0.00330735 -0.0386367 0 200 0
-2.69965 0.0037468 -0.0393522 0 200 0
-2.69472 0.00418625 -0.0400677 0 200 0
-2.68979 0.0046257 -0.0407832 0 200 0
-2.68487 0.00506515 -0.0414987 0 200 0
-2.67994 0.00550461 -0.0422142 0 200 0
-2.67501 0.00594406 -0.0429297 0 200 0
-2.67008 0.00638351 -0.0436452 0 200 0
-2.66515 0.00682296 -0.0443606 0 200 0
-2.66022 0.00726241 -0.0450761 0 200 0
-2.65529 0.00770187 -0.0457916 0 200 0
-2.65036 0.00814132 -0.0465071 0 200 0
-2.64543 0.00858077 -0.0472226 0 200 0
-2.64051 0.00902022 -0.0479381 0 200 0
-2.63558 0.00945967 -0.0486536 0 200 0
-2.63065 0.00989913 -0.0493691 0 200 0
-2.62572 0.0103386 -0.0500846 0 200 0
-2.62079 0.010778 -0.0508001 0 200 0
-2.61586 0.0112175 -0.0515156 0 200 0
-2.61093 0.0116569 -0.0522311 0 200 0
-2.606 0.0120964 -0.0529466 0 200 0
-2.60107 0.0125358 -0.0536621 0 200 0
-2.59614 0.0129753 -0.0543776 0 200 0
-2.59122 0.0134147 -0.0550931 0 200 0
-2.58629 0.0138542 -0.0558086 0 200 0
-2.58136 0.0142936 -0.056524 0 200 0
-2.57643 0.0147331 -0.0572395 0 200 0
-2.5715 0.0151725 -0.057955 0 200 0
-2.56657 0.015612 -0.0586705 0 200 0
-2.56164 0.0160515 -0.059386 0 200 0
-2.55671 0.0164909 -0.0601015 0 200 0
-2.55178 0.0169304 -0.060817 0 200 0
-2.54685 0.0173698 -0.0615325 0 200 0
-2.54193 0.0178093 -0.062248 0 200 0
-2.537 0.0182487 -0.0629635 0 200 0
-2.53207 0.0186882 -0.063679 0 200 0
-2.52714 0.0191276 -0.0643945 0 200 0
-2.52221 0.0195671 -0.06511 0 200 0
-2.51728 0.0200065 -0.0658255 0 200 0
-2.51235 0.020446 -0.066541 0 200 0
-2.50742 0.0208854 -0.0672565 0 200 0
-2.50249 0.0213249 -0.067972 0 200 0
-2.49756 0.0217643 -0.0686875 0 200 0
-2.49264 0.0222038 -0.0694029 0 200 0
-2.48771 0.0226432 -0.0701184 0 200 0
-2.48278 0.0230827 -0.0708339 0 200 0
-2.98753 0.0972577 0 0 200 0
-2.98269 0.0978607 -0.00112743 0 200 0
-2.97786 0.0984637 -0.00225486 0 200 0
-2.97302 0.0990668 -0.00338229 0 200 0
-2.96819 0.0996698 -0.00450973 0 200 0
-2.96336 0.100273 -0.00563716 0 200 0
-2.95852 0.100876 -0.00676459 0 200 0
-2.95369 0.101479 -0.00789202 0 200 0
-2.94886 0.102082 -0.00901945 0 200 0
-2.94402 0.102685 -0.0101469 0 200 0
-2.93919 0.103288 -0.0112743 0 200 0
-2.93435 0.103891 -0.0124017 0 200 0
-2.92952 0.104494 -0.0135292 0 200 0
-2.92469 0.105097 -0.0146566 0 200 0
-2.91985 0.1057 -0.015784 0 200 0
-2.91502 0.106303 -0.0169115 0 200 0
-2.91019 0.106906 -0.0180389 0 200 0
-2.90535 0.107509 -0.0191663 0 200 0
-2.90052 0.108112 -0.0202938 0 200 0
-2.89568 0.108715 -0.0214212 0 200 0
-2.89085 0.109318 -0.0225486 0 200 0
-2.88602 0.109921 -0.0236761 0 200 0
-2.88118 0.110524 -0.0248035 0 200 0
-2.87635 0.111127 -0.0259309 0 200 0
-2.87152 0.11173 -0.0270584 0 200 0
-2.86668 0.112333 -0.0281858 0 200 0
-2.86185 0.112936 -0.0293132 0 200 0
-2.85701 0.113539 -0.0304407 0 200 0
-2.85218 0.114143 -0.0315681 0 200 0
-2.84735 0.114746 -0.0326955 0 200 0
-2.84251 0.115349 -0.0338229 0 200 0
-2.83768 0.115952 -0.0349504 0 200 0
-2.83285 0.116555 -0.0360778 0 200 0
-2.82801 0.117158 -0.0372052 0 200 0
-2.82318 0.117761 -0.0383327 0 200 0
-2.81834 0.118364 -0.0394601 0 200 0
-2.81351 0.118967 -0.0405875 0 200 0
-2.80868 0.11957 -0.041715 0 200 0
-2.80384 0.120173 -0.0428424 0 200 0
-2.79901 0.120776 -0.0439698 0 200 0
-2.79418 0.121379 -0.0450973 0 200 0
-2.78934 0.121982 -0.0462247 0 200 0
-2.78451 0.122585 -0.0473521 0 200 0
-2.77967 0.123188 -0.0484796 0 200 0
-2.77484 0.123791 -0.049607 0 200 0
-2.77001 0.124394 -0.0507344 0 200 0
-2.76517 0.124997 -0.0518619 0 200 0
-2.76034 0.1256 -0.0529893 0 200 0
-2.75551 0.126203 -0.0541167 0 200 0
-2.75067 0.126806 -0.0552441 0 200 0
-2.74584 0.127409 -0.0563716 0 200 0
-2.741 0.128012 -0.057499 0 200 0
-2.73617 0.128615 -0.0586264 0 200 0
-2.73134 0.129218 -0.0597539 0 200 0
-2.7265 0.129821 -0.0608813 0 200 0
-2.72167 0.130424 -0.0620087 0 200 0
-2.71684 0.131027 -0.0631362 0 200 0
-2.712 0.13163 -0.0642636 0 200 0
-2.70717 0.132233 -0.065391 0 200 0
-2.70233 0.132836 -0.0665185 0 200 0
-2.6975 0.133439 -0.0676459 0 200 0
-2.69267 0.134042 -0.0687733 0 200 0
-2.68783 0.134646 -0.0699008 0 200 0
-2.683 0.135249 -0.0710282 0 200 0
-2.67816 0.135852 -0.0721556 0 200 0
-2.67333 0.136455 -0.073283 0 200 0
-2.6685 0.137058 -0.0744105 0 200 0
-2.66366 0.137661 -0.0755379 0 200 0
-2.65883 0.138264 -0.0766653 0 200 0
-2.654 0.138867 -0.0777928 0 200 0
-2.64916 0.13947 -0.0789202 0 200 0
-2.64433 0.140073 -0.0800476 0 200 0
-2.63949 0.140676 -0.0811751 0 200 0
-2.63466 0.141279 -0.0823025 0 200 0
-2.62983 0.141882 -0.0834299 0 200 0
-2.62499 0.142485 -0.0845574 0 200 0
-2.62016 0.143088 -0.0856848 0 200 0
-2.61533 0.143691 -0.0868122 0 200 0
-2.61049 0.144294 -0.0879397 0 200 0
-2.60566 0.144897 -0.0890671 0 200 0
-2.60082 0.1455 -0.0901945 0 200 0
-2.59599 0.146103 -0.091322 0 200 0
-2.59116 0.146706 -0.0924494 0 200 0
-2.58632 0.147309 -0.0935768 0 200 0
-2.58149 0.147912 -0.0947042 0 200 0
-2.57666 0.148515 -0.0958317 0 200 0
-2.57182 0.149118 -0.0969591 0 200 0
-2.56699 0.149721 -0.0980865 0 200 0
-2.56215 0.150324 -0.099214 0 200 0
-2.55732 0.150927 -0.100341 0 200 0
-2.55249 0.15153 -0.101469 0 200 0
-2.54765 0.152133 -0.102596 0 200 0
-2.54282 0.152736 -0.103724 0 200 0
-2.53799 0.153339 -0.104851 0 200 0
-2.53315 0.153942 -0.105979 0 200 0
-2.52832 0.154545 -0.107106 0 200 0
-2.52348 0.155149 -0.108233 0 200 0
-2.51865 0.155752 -0.109361 0 200 0
-2.51382 0.156355 -0.110488 0 200 0
-2.50898 0.156958 -0.111616 0 200 0
-2.89192 0.259585 0 0 200 0
-2.88703 0.260047 -0.000951418 0 200 0
-2.88215 0.260509 -0.00190284 0 200 0
-2.87726 0.260971 -0.00285425 0 200 0
-2.87237 0.261433 -0.00380567 0 200 0
-2.86749 0.261895 -0.00475709 0 200 0
-2.8626 0.262357 -0.00570851 0 200 0
-2.85771 0.262819 -0.00665993 0 200 0
-2.85283 0.263281 -0.00761134 0 200 0
-2.84794 0.263743 -0.00856276 0 200 0
-2.84305 0.264205 -0.00951418 0 200 0
-2.83817 0.264667 -0.0104656 0 200 0
-2.83328 0.265129 -0.011417 0 200 0
-2.82839 0.265591 -0.0123684 0 200 0
-2.8235 0.266053 -0.0133199 0 200 0
-2.81862 0.266515 -0.0142713 0 200 0
-2.81373 0.266977 -0.0152227 0 200 0
-2.80884 0.267439 -0.0161741 0 200 0
-2.80396 0.267901 -0.0171255 0 200 0
-2.79907 0.268363 -0.0180769 0 200 0
-2.79418 0.268825 -0.0190284 0 200 0
-2.7893 0.269287 -0.0199798 0 200 0
-2.78441 0.269749 -0.0209312 0 200 0
-2.77952 0.270211 -0.0218826 0 200 0
-2.77464 0.270673 -0.022834 0 200 0
-2.76975 0.271134 -0.0237854 0 200 0
-2.76486 0.271596 -0.0247369 0 200 0
-2.75998 0.272058 -0.0256883 0 200 0
-2.75509 0.27252 -0.0266397 0 200 0
-2.7502 0.272982 -0.0275911 0 200 0
-2.74531 0.273444 -0.0285425 0 200 0
-2.74043 0.273906 -0.029494 0 200 0
-2.73554 0.274368 -0.0304454 0 200 0
-2.73065 0.27483 -0.0313968 0 200 0
-2.72577 0.275292 -0.0323482 0 200 0
-2.72088 0.275754 -0.0332996 0 200 0
-2.71599 0.276216 -0.034251 0 200 0
-2.71111 0.276678 -0.0352025 0 200 0
-2.70622 0.27714 -0.0361539 0 200 0
-2.70133 0.277602 -0.0371053 0 200 0
-2.69645 0.278064 -0.0380567 0 200 0
-2.69156 0.278526 -0.0390081 0 200 0
-2.68667 0.278988 -0.0399596 0 200 0
-2.68179 0.27945 -0.040911 0 200 0
-2.6769 0.279912 -0.0418624 0 200 0
-2.67201 0.280374 -0.0428138 0 200 0
-2.66712 0.280836 -0.0437652 0 200 0
-2.66224 0.281298 -0.0447166 0 200 0
-2.65735 0.28176 -0.0456681 0 200 0
-2.65246 0.282222 -0.0466195 0 200 0
-2.64758 0.282684 -0.0475709 0 200 0
-2.64269 0.283146 -0.0485223 0 200 0
-2.6378 0.283608 -0.0494737 0 200 0
-2.63292 0.28407 -0.0504251 0 200 0
-2.62803 0.284532 -0.0513766 0 200 0
-2.62314 0.284994 -0.052328 0 200 0
-2.61826 0.285456 -0.0532794 0 200 0
-2.61337 0.285918 -0.0542308 0 200 0
-2.60848 0.28638 -0.0551822 0 200 0
-2.6036 0.286842 -0.0561337 0 200 0
-2.59871 0.287304 -0.0570851 0 200 0
-2.59382 0.287766 -0.0580365 0 200 0
-2.58894 0.288228 -0.0589879 0 200 0
-2.58405 0.28869 -0.0599393 0 200 0
-2.57916 0.289152 -0.0608907 0 200 0
-2.57427 0.289614 -0.0618422 0 200 0
-2.56939 0.290076 -0.0627936 0 200 0
-2.5645 0.290538 -0.063745 0 200 0
-2.55961 0.291 -0.0646964 0 200 0
-2.55473 0.291462 -0.0656478 0 200 0
-2.54984 0.291924 -0.0665993 0 200 0
-2.54495 0.292386 -0.0675507 0 200 0
-2.54007 0.292848 -0.0685021 0 200 0
-2.53518 0.29331 -0.0694535 0 200 0
-2.53029 0.293772 -0.0704049 0 200 0
-2.52541 0.294234 -0.0713563 0 200 0
-2.52052 0.294696 -0.0723078 0 200 0
-2.51563 0.295158 -0.0732592 0 200 0
-2.51075 0.29562 -0.0742106 0 200 0
-2.50586 0.296082 -0.075162 0 200 0
-2.50097 0.296544 -0.0761134 0 200 0
-2.49608 0.297006 -0.0770649 0 200 0
-2.4912 0.297467 -0.0780163 0 200 0
-2.48631 0.297929 -0.0789677 0 200 0
-2.48142 0.298391 -0.0799191 0 200 0
-2.47654 0.298853 -0.0808705 0 200 0
-2.47165 0.299315 -0.0818219 0 200 0
-2.46676 0.299777 -0.0827734 0 200 0
-2.46188 0.300239 -0.0837248 0 200 0
-2.45699 0.300701 -0.0846762 0 200 0
-2.4521 0.301163 -0.0856276 0 200 0
-2.44722 0.301625 -0.086579 0 200 0
-2.44233 0.302087 -0.0875304 0 200 0
-2.43744 0.302549 -0.0884819 0 200 0
-2.43256 0.303011 -0.0894333 0 200 0
-2.42767 0.303473 -0.0903847 0 200 0
-2.42278 0.303935 -0.0913361 0 200 0
-2.4179 0.304397 -0.0922875 0 200 0
-2.41301 0.304859 -0.093239 0 200 0
-2.40812 0.305321 -0.0941904 0 200 0
-2.71302 0.39442 0 0 200 0
-2.70812 0.394953 -0.000818085 0 200 0
-2.70321 0.395487 -0.00163617 0 200 0
-2.69831 0.39602 -0.00245425 0 200 0
-2.69341 0.396553 -0.00327234 0 200 0
-2.6885 0.397086 -0.00409042 0 200 0
-2.6836 0.397619 -0.00490851 0 200 0
-2.67869 0.398152 -0.00572659 0 200 0
-2.67379 0.398686 -0.00654468 0 200 0
-2.66889 0.399219 -0.00736276 0 200 0
-2.66398 0.399752 -0.00818085 0 200 0
-2.65908 0.400285 -0.00899893 0 200 0
-2.65418 0.400818 -0.00981702 0 200 0
-2.64927 0.401351 -0.0106351 0 200 0
-2.64437 0.401884 -0.0114532 0 200 0
-2.63946 0.402418 -0.0122713 0 200 0
-2.63456 0.402951 -0.0130894 0 200 0
-2.62966 0.403484 -0.0139074 0 200 0
-2.62475 0.404017 -0.0147255 0 200 0
-2.61985 0.40455 -0.0155436 0 200 0
-2.61495 0.405083 -0.0163617 0 200 0
-2.61004 0.405617 -0.0171798 0 200 0
-2.60514 0.40615 -0.0179979 0 200 0
-2.60023 0.406683 -0.018816 0 200 0
-2.59533 0.407216 -0.019634 0 200 0
-2.59043 0.407749 -0.0204521 0 200 0
-2.58552 0.408282 -0.0212702 0 200 0
-2.58062 0.408816 -0.0220883 0 200 0
-2.57572 0.409349 -0.0229064 0 200 0
-2.57081 0.409882 -0.0237245 0 200 0
-2.56591 0.410415 -0.0245425 0 200 0
-2.561 0.410948 -0.0253606 0 200 0
-2.5561 0.411481 -0.0261787 0 200 0
-2.5512 0.412015 -0.0269968 0 200 0
-2.54629 0.412548 -0.0278149 0 200 0
-2.54139 0.413081 -0.028633 0 200 0
-2.53649 0.413614 -0.0294511 0 200 0
-2.53158 0.414147 -0.0302691 0 200 0
-2.52668 0.41468 -0.0310872 0 200 0
-2.52178 0.415214 -0.0319053 0 200 0
-2.51687 0.415747 -0.0327234 0 200 0
-2.51197 0.41628 -0.0335415 0 200 0
-2.50706 0.416813 -0.0343596 0 200 0
-2.50216 0.417346 -0.0351776 0 200 0
-2.49726 0.417879 -0.0359957 0 200 0
-2.49235 0.418413 -0.0368138 0 200 0
-2.48745 0.418946 -0.0376319 0 200 0
-2.48255 0.419479 -0.03845 0 200 0
-2.47764 0.420012 -0.0392681 0 200 0
-2.47274 0.420545 -0.0400862 0 200 0
-2.46783 0.421078 -0.0409042 0 200 0
-2.46293 0.421612 -0.0417223 0 200 0
-2.45803 0.422145 -0.0425404 0 200 0
-2.45312 0.422678 -0.0433585 0 200 0
-2.44822 0.423211 -0.0441766 0 200 0
-2.44332 0.423744 -0.0449947 0 200 0
-2.43841 0.424277 -0.0458128 0 200 0
-2.43351 0.42481 -0.0466308 0 200 0
-2.4286 0.425344 -0.0474489 0 200 0
-2.4237 0.425877 -0.048267 0 200 0
-2.4188 0.42641 -0.0490851 0 200 0
-2.41389 0.426943 -0.0499032 0 200 0
-2.40899 0.427476 -0.0507213 0 200 0
-2.40409 0.428009 -0.0515393 0 200 0
-2.39918 0.428543 -0.0523574 0 200 0
-2.39428 0.429076 -0.0531755 0 200 0
-2.38937 0.429609 -0.0539936 0 200 0
-2.38447 0.430142 -0.0548117 0 200 0
-2.37957 0.430675 -0.0556298 0 200 0
-2.37466 0.431208 -0.0564479 0 200 0
-2.36976 0.431742 -0.0572659 0 200 0
-2.36486 0.432275 -0.058084 0 200 0
-2.35995 0.432808 -0.0589021 0 200 0
-2.35505 0.433341 -0.0597202 0 200 0
-2.35014 0.433874 -0.0605383 0 200 0
-2.34524 0.434407 -0.0613564 0 200 0
-2.34034 0.434941 -0.0621744 0 200 0
-2.33543 0.435474 -0.0629925 0 200 0
-2.33053 0.436007 -0.0638106 0 200 0
-2.32563 0.43654 -0.0646287 0 200 0
-2.32072 0.437073 -0.0654468 0 200 0
-2.31582 0.437606 -0.0662649 0 200 0
-2.31092 0.43814 -0.067083 0 200 0
-2.30601 0.438673 -0.067901 0 200 0
-2.30111 0.439206 -0.0687191 0 200 0
-2.2962 0.439739 -0.0695372 0 200 0
-2.2913 0.440272 -0.0703553 0 200 0
-2.2864 0.440805 -0.0711734 0 200 0
-2.28149 0.441339 -0.0719915 0 200 0
-2.27659 0.441872 -0.0728095 0 200 0
-2.27169 0.442405 -0.0736276 0 200 0
-2.26678 0.442938 -0.0744457 0 200 0
-2.26188 0.443471 -0.0752638 0 200 0
-2.25697 0.444004 -0.0760819 0 200 0
-2.25207 0.444538 -0.0769 0 200 0
-2.24717 0.445071 -0.0777181 0 200 0
-2.24226 0.445604 -0.0785361 0 200 0
-2.23736 0.446137 -0.0793542 0 200 0
-2.23246 0.44667 -0.0801723 0 200 0
-2.22755 0.447203 -0.0809904 0 200 0
-2.49913 0.537125 0 0 200 0
-2.4942 0.537453 -0.000770602 0 200 0
-2.48927 0.537782 -0.0015412 0 200 0
-2.48434 0.53811 -0.00231181 0 200 0
-2.47941 0.538438 -0.00308241 0 200 0
-2.47448 0.538767 -0.00385301 0 200 0
-2.46955 0.539095 -0.00462361 0 200 0
-2.46462 0.539424 -0.00539422 0 200 0
-2.45969 0.539752 -0.00616482 0 200 0
-2.45476 0.54008 -0.00693542 0 200 0
-2.44983 0.540409 -0.00770602 0 200 0
-2.4449 0.540737 -0.00847663 0 200 0
-2.43997 0.541066 -0.00924723 0 200 0
-2.43504 0.541394 -0.0100178 0 200 0
-2.43011 0.541722 -0.0107884 0 200 0
-2.42519 0.542051 -0.011559 0 200 0
-2.42026 0.542379 -0.0123296 0 200 0
-2.41533 0.542708 -0.0131002 0 200 0
-2.4104 0.543036 -0.0138708 0 200 0
-2.40547 0.543364 -0.0146414 0 200 0
-2.40054 0.543693 -0.015412 0 200 0
-2.39561 0.544021 -0.0161826 0 200 0
-2.39068 0.544349 -0.0169533 0 200 0
-2.38575 0.544678 -0.0177239 0 200 0
-2.38082 0.545006 -0.0184945 0 200 0
-2.37589 0.545335 -0.0192651 0 200 0
-2.37096 0.545663 -0.0200357 0 200 0
-2.36603 0.545991 -0.0208063 0 200 0
-2.3611 0.54632 -0.0215769 0 200 0
-2.35617 0.546648 -0.0223475 0 200 0
-2.35125 0.546977 -0.0231181 0 200 0
-2.34632 0.547305 -0.0238887 0 200 0
-2.34139 0.547633 -0.0246593 0 200 0
-2.33646 0.547962 -0.0254299 0 200 0
-2.33153 0.54829 -0.0262005 0 200 0
-2.3266 0.548618 -0.0269711 0 200 0
-2.32167 0.548947 -0.0277417 0 200 0
-2.31674 0.549275 -0.0285123 0 200 0
-2.31181 0.549604 -0.0292829 0 200 0
-2.30688 0.549932 -0.0300535 0 200 0
-2.30195 0.55026 -0.0308241 0 200 0
-2.29702 0.550589 -0.0315947 0 200 0
-2.29209 0.550917 -0.0323653 0 200 0
-2.28716 0.551246 -0.0331359 0 200 0
-2.28223 0.551574 -0.0339065 0 200 0
-2.27731 0.551902 -0.0346771 0 200 0
-2.27238 0.552231 -0.0354477 0 200 0
-2.26745 0.552559 -0.0362183 0 200 0
-2.26252 0.552888 -0.0369889 0 200 0
-2.25759 0.553216 -0.0377595 0 200 0
-2.25266 0.553544 -0.0385301 0 200 0
-2.24773 0.553873 -0.0393007 0 200 0
-2.2428 0.554201 -0.0400713 0 200 0
-2.23787 0.554529 -0.0408419 0 200 0
-2.23294 0.554858 -0.0416125 0 200 0
-2.22801 0.555186 -0.0423831 0 200 0
-2.22308 0.555515 -0.0431537 0 200 0
-2.21815 0.555843 -0.0439243 0 200 0
-2.21322 0.556171 -0.0446949 0 200 0
-2.20829 0.5565 -0.0454655 0 200 0
-2.20337 0.556828 -0.0462361 0 200 0
-2.19844 0.557157 -0.0470067 0 200 0
-2.19351 0.557485 -0.0477773 0 200 0
-2.18858 0.557813 -0.0485479 0 200 0
-2.18365 0.558142 -0.0493185 0 200 0
-2.17872 0.55847 -0.0500892 0 200 0
-2.17379 0.558799 -0.0508598 0 200 0
-2.16886 0.559127 -0.0516304 0 200 0
-2.16393 0.559455 -0.052401 0 200 0
-2.159 0.559784 -0.0531716 0 200 0
-2.15407 0.560112 -0.0539422 0 200 0
-2.14914 0.56044 -0.0547128 0 200 0
-2.14421 0.560769 -0.0554834 0 200 0
-2.13928 0.561097 -0.056254 0 200 0
-2.13435 0.561426 -0.0570246 0 200 0
-2.12943 0.561754 -0.0577952 0 200 0
-2.1245 0.562082 -0.0585658 0 200 0
-2.11957 0.562411 -0.0593364 0 200 0
-2.11464 0.562739 -0.060107 0 200 0
-2.10971 0.563068 -0.0608776 0 200 0
-2.10478 0.563396 -0.0616482 0 200 0
-2.09985 0.563724 -0.0624188 0 200 0
-2.09492 0.564053 -0.0631894 0 200 0
-2.08999 0.564381 -0.06396 0 200 0
-2.08506 0.56471 -0.0647306 0 200 0
-2.08013 0.565038 -0.0655012 0 200 0
-2.0752 0.565366 -0.0662718 0 200 0
-2.07027 0.565695 -0.0670424 0 200 0
-2.06534 0.566023 -0.067813 0 200 0
-2.06041 0.566352 -0.0685836 0 200 0
-2.05549 0.56668 -0.0693542 0 200 0
-2.05056 0.567008 -0.0701248 0 200 0
-2.04563 0.567337 -0.0708954 0 200 0
-2.0407 0.567665 -0.071666 0 200 0
-2.03577 0.567993 -0.0724366 0 200 0
-2.03084 0.568322 -0.0732072 0 200 0
-2.02591 0.56865 -0.0739778 0 200 0
-2.02098 0.568979 -0.0747484 0 200 0
-2.01605 0.569307 -0.075519 0 200 0
-2.01112 0.569635 -0.0762896 0 200 0
-2.25085 0.705922 0 0 200 0
-2.24597 0.706659 -0.000777585 0 200 0
-2.24108 0.707397 -0.00155517 0 200 0
-2.2362 0.708134 -0.00233276 0 200 0
-2.23131 0.708872 -0.00311034 0 200 0
-2.22643 0.709609 -0.00388793 0 200 0
-2.22155 0.710347 -0.00466551 0 200 0
-2.21666 0.711084 -0.0054431 0 200 0
-2.21178 0.711822 -0.00622068 0 200 0
-2.20689 0.712559 -0.00699827 0 200 0
-2.20201 0.713297 -0.00777585 0 200 0
-2.19713 0.714034 -0.00855344 0 200 0
-2.19224 0.714772 -0.00933102 0 200 0
-2.18736 0.715509 -0.0101086 0 200 0
-2.18248 0.716247 -0.0108862 0 200 0
