ply
format ascii 1.0
element vertex 646
property float x
property float y
property float z
property uchar red
property uchar green
property uchar blue
end_header
-1.19167494773864746 -4.24270200729370117 0.232552006840705872 0 255 255
-1.18952202796936035 -4.23406696319580078 0.23183499276638031 0 255 255
-1.18727397918701172 -4.22532176971435547 0.23126499354839325 0 255 255
-1.18495595455169678 -4.21655511856079102 0.230838000774383545 0 255 255
-1.18257999420166016 -4.20779895782470703 0.230545997619628906 0 255 255
-1.18015801906585693 -4.19907188415527344 0.230379998683929443 0 255 255
-1.17769205570220947 -4.19036722183227539 0.230338007211685181 0 255 255
-1.17517399787902832 -4.18166589736938477 0.230426996946334839 0 255 255
-1.17252802848815918 -4.1727747917175293 0.230661004781723022 0 255 255
-1.16974794864654541 -4.16376304626464844 0.231050997972488403 0 255 255
-1.16687297821044922 -4.15481996536254883 0.231584995985031128 0 255 255
-1.16392505168914795 -4.14603376388549805 0.232238993048667908 0 255 255
-1.16087794303894043 -4.13732481002807617 0.233000993728637695 0 255 255
-1.15776002407073975 -4.12878179550170898 0.233844995498657227 0 255 255
-1.15458405017852783 -4.1204371452331543 0.234753996133804321 0 255 255
-1.1513819694519043 -4.11236000061035156 0.235707998275756836 0 255 255
-1.14814901351928711 -4.10450506210327148 0.236702993512153625 0 255 255
-1.14486896991729736 -4.09680700302124023 0.237739995121955872 0 255 255
-1.14156198501586914 -4.08928823471069336 0.238808006048202515 0 255 255
-1.13821494579315186 -4.08186101913452148 0.23986700177192688 0 255 255
-1.13482701778411865 -4.07453012466430664 0.24095599353313446 0 255 255
-1.13140904903411865 -4.06730890274047852 0.242073997855186462 0 255 255
-1.12791800498962402 -4.06008386611938477 0.243240997195243835 0 255 255
-1.12437796592712402 -4.05288982391357422 0.244459003210067749 0 255 255
-1.12079894542694092 -4.04572582244873047 0.245737001299858093 0 255 255
-1.11721503734588623 -4.03864383697509766 0.247071996331214905 0 255 255
-1.11359703540802002 -4.03156423568725586 0.248487994074821472 0 255 255
-1.10998499393463135 -4.02453804016113281 0.249978005886077881 0 255 255
-1.10639595985412598 -4.01756715774536133 0.251542985439300537 0 255 255
-1.1028449535369873 -4.01065206527709961 0.253181010484695435 0 255 255
-1.0993659496307373 -4.00382804870605469 0.254875987768173218 0 255 255
-1.0959160327911377 -3.99700498580932617 0.256642997264862061 0 255 255
-1.09250998497009277 -3.9902191162109375 0.258462011814117432 0 255 255
-1.08913600444793701 -3.98346495628356934 0.260324001312255859 0 255 255
-1.08578705787658691 -3.97673892974853516 0.262219995260238647 0 255 255
-1.08247697353363037 -3.97007489204406738 0.264126002788543701 0 255 255
-1.07935702800750732 -3.96378207206726074 0.265947014093399048 0 255 255
-1.07635998725891113 -3.95772600173950195 0.267711013555526733 0 255 255
-1.07336199283599854 -3.95166611671447754 0.269483000040054321 0 255 255
-1.07036495208740234 -3.9456019401550293 0.271255999803543091 0 255 255
-1.06767702102661133 -3.94022202491760254 0.27283400297164917 0 255 255
-1.06497502326965332 -3.93482089042663574 0.274410009384155273 0 255 255
-1.06212401390075684 -3.92915105819702148 0.276046991348266602 0 255 255
-1.05901801586151123 -3.92302298545837402 0.277788996696472168 0 255 255
-1.05588805675506592 -3.91689896583557129 0.279493004083633423 0 255 255
-1.05273199081420898 -3.91078495979309082 0.281147003173828125 0 255 255
-1.04954302310943604 -3.9046781063079834 0.282743990421295166 0 255 255
-1.04634499549865723 -3.89862489700317383 0.284263014793395996 0 255 255
-1.04310405254364014 -3.89256691932678223 0.285706996917724609 0 255 255
-1.03985905647277832 -3.88656902313232422 0.287052005529403687 0 255 255
-1.03662395477294922 -3.88064694404602051 0.288280993700027466 0 255 255
-1.03341102600097656 -3.87480902671813965 0.289382994174957275 0 255 255
-1.03025603294372559 -3.86910295486450195 0.290338009595870972 0 255 255
-1.02712404727935791 -3.86345100402832031 0.291150003671646118 0 255 255
-1.02404296398162842 -3.85788607597351074 0.291808992624282837 0 255 255
-1.02101194858551025 -3.85239505767822266 0.292313992977142334 0 255 255
-1.01805901527404785 -3.84701299667358398 0.292665004730224609 0 255 255
-1.0151439905166626 -3.84165596961975098 0.292872995138168335 0 255 255
-1.01229000091552734 -3.83635807037353516 0.292941004037857056 0 255 255
-1.00948703289031982 -3.83108901977539062 0.292879998683929443 0 255 255
-1.00671601295471191 -3.82581806182861328 0.292697995901107788 0 255 255
-1.00396895408630371 -3.82052993774414062 0.29240301251411438 0 255 255
-1.00080001354217529 -3.81429290771484375 0.29193800687789917 0 255 255
-0.997641026973724365 -3.80800700187683105 0.291361004114151001 0 255 255
-0.994504988193511963 -3.80171394348144531 0.290688991546630859 0 255 255
-0.991388022899627686 -3.79541397094726562 0.289930999279022217 0 255 255
-0.988303005695343018 -3.78914904594421387 0.28910401463508606 0 255 255
-0.985203981399536133 -3.78284001350402832 0.288206994533538818 0 255 255
-0.982109010219573975 -3.77652907371520996 0.287252992391586304 0 255 255
-0.979013979434967041 -3.77021598815917969 0.286244988441467285 0 255 255
-0.975938022136688232 -3.76393795013427734 0.285192996263504028 0 255 255
-0.972823977470397949 -3.75757908821105957 0.284076988697052002 0 255 255
-0.969726026058197021 -3.75125694274902344 0.282918006181716919 0 255 255
-0.966620981693267822 -3.74493193626403809 0.28170698881149292 0 255 255
-0.963629007339477539 -3.73884892463684082 0.280494987964630127 0 255 255
-0.960761010646820068 -3.73303008079528809 0.279291987419128418 0 255 255
-0.957874000072479248 -3.72719192504882812 0.278046995401382446 0 255 255
-0.95496600866317749 -3.7213289737701416 0.276757985353469849 0 255 255
-0.952054977416992188 -3.71547508239746094 0.275438010692596436 0 255 255
-0.948813021183013916 -3.70884609222412109 0.273927986621856689 0 255 255
-0.945544004440307617 -3.7021629810333252 0.272372990846633911 0 255 255
-0.94225001335144043 -3.69541597366333008 0.270781993865966797 0 255 255
-0.938953995704650879 -3.68863701820373535 0.269172996282577515 0 255 255
-0.935621023178100586 -3.68173408508300781 0.267535001039505005 0 255 255
-0.932280004024505615 -3.67473602294921875 0.265886008739471436 0 255 255
-0.928938984870910645 -3.66763806343078613 0.264236003160476685 0 255 255
-0.925603985786437988 -3.660430908203125 0.262594014406204224 0 255 255
-0.922281980514526367 -3.65311288833618164 0.260969012975692749 0 255 255
-0.918977975845336914 -3.64567995071411133 0.259373009204864502 0 255 255
-0.915696978569030762 -3.6381371021270752 0.257818013429641724 0 255 255
-0.91245800256729126 -3.63053393363952637 0.256325989961624146 0 255 255
-0.909220993518829346 -3.62278604507446289 0.25489199161529541 0 255 255
-0.906000018119812012 -3.61494803428649902 0.253536999225616455 0 255 255
-0.902809977531433105 -3.60707497596740723 0.252281993627548218 0 255 255
-0.89960402250289917 -3.5990750789642334 0.251118987798690796 0 255 255
-0.896394014358520508 -3.59099888801574707 0.250066012144088745 0 255 255
-0.893172979354858398 -3.58284902572631836 0.249125003814697266 0 255 255
-0.889935016632080078 -3.57462596893310547 0.24830000102519989 0 255 255
-0.886673986911773682 -3.5663299560546875 0.247591003775596619 0 255 255
-0.883397996425628662 -3.55797600746154785 0.247001007199287415 0 255 255
-0.880068004131317139 -3.54949808120727539 0.24652099609375 0 255 255
-0.876698017120361328 -3.54094600677490234 0.246151000261306763 0 255 255
-0.873287022113800049 -3.532318115234375 0.245885998010635376 0 255 255
-0.869850993156433105 -3.5236670970916748 0.245719999074935913 0 255 255
-0.866344988346099854 -3.51488590240478516 0.245642006397247314 0 255 255
-0.862788975238800049 -3.50603008270263672 0.245643004775047302 0 255 255
-0.859180986881256104 -3.49710607528686523 0.245711997151374817 0 255 255
-0.85555797815322876 -3.48822808265686035 0.245839998126029968 0 255 255
-0.852105975151062012 -3.47987604141235352 0.246015995740890503 0 255 255
-0.848591029644012451 -3.47149801254272461 0.24625299870967865 0 255 255
-0.845022022724151611 -3.46312403678894043 0.24655500054359436 0 255 255
-0.841458976268768311 -3.45487499237060547 0.246922999620437622 0 255 255
-0.837926983833312988 -3.44678902626037598 0.247354999184608459 0 255 255
-0.834433019161224365 -3.43886995315551758 0.247850999236106873 0 255 255
-0.830998003482818604 -3.43116307258605957 0.248403996229171753 0 255 255
-0.827587008476257324 -3.42358708381652832 0.249015003442764282 0 255 255
-0.824240028858184814 -3.41621208190917969 0.249669000506401062 0 255 255
-0.820976018905639648 -3.40905499458312988 0.250357985496520996 0 255 255
-0.817830979824066162 -3.40215802192687988 0.251071006059646606 0 255 255
-0.814773023128509521 -3.39541292190551758 0.251812994480133057 0 255 255
-0.811457991600036621 -3.38800692558288574 0.252674013376235962 0 255 255
-0.808261990547180176 -3.38079500198364258 0.253553003072738647 0 255 255
-0.805332005023956299 -3.37415194511413574 0.254395991563796997 0 255 255
-0.802343010902404785 -3.36739897727966309 0.255286991596221924 0 255 255
-0.799273014068603516 -3.36056399345397949 0.256226986646652222 0 255 255
-0.796060025691986084 -3.35359001159667969 0.257232993841171265 0 255 255
-0.792712986469268799 -3.34656691551208496 0.25830000638961792 0 255 255
-0.789240002632141113 -3.33956193923950195 0.259427011013031006 0 255 255
-0.785676002502441406 -3.33267307281494141 0.260598987340927124 0 255 255
-0.782059013843536377 -3.32596993446350098 0.261804014444351196 0 255 255
-0.778351008892059326 -3.31936407089233398 0.26305699348449707 0 255 255
-0.774581015110015869 -3.3128819465637207 0.264353007078170776 0 255 255
-0.770771026611328125 -3.30652308464050293 0.265686988830566406 0 255 255
-0.767026007175445557 -3.30041790008544922 0.267024993896484375 0 255 255
-0.763324975967407227 -3.29449009895324707 0.268373996019363403 0 255 255
-0.75959700345993042 -3.28859591484069824 0.269760996103286743 0 255 255
-0.755913019180297852 -3.28282499313354492 0.271160989999771118 0 255 255
-0.752263009548187256 -3.27712798118591309 0.272581011056900024 0 255 255
-0.74866098165512085 -3.27150607109069824 0.274020999670028687 0 255 255
-0.745124995708465576 -3.26595592498779297 0.275474011898040771 0 255 255
-0.741692006587982178 -3.26050710678100586 0.276928991079330444 0 255 255
-0.738524973392486572 -3.25539588928222656 0.278306007385253906 0 255 255
-0.735387980937957764 -3.25022697448730469 0.279713988304138184 0 255 255
-0.732191979885101318 -3.24483489990234375 0.281190007925033569 0 255 255
-0.729095995426177979 -3.23947811126708984 0.282653003931045532 0 255 255
-0.726060986518859863 -3.23407506942749023 0.284108012914657593 0 255 255
-0.723097026348114014 -3.22864699363708496 0.285535991191864014 0 255 255
-0.720193028450012207 -3.22317290306091309 0.286924004554748535 0 255 255
-0.717351019382476807 -3.21767401695251465 0.28825300931930542 0 255 255
-0.714504003524780273 -3.21203207969665527 0.289532005786895752 0 255 255
-0.711692988872528076 -3.20634889602661133 0.290719985961914062 0 255 255
-0.708885014057159424 -3.20058393478393555 0.291810005903244019 0 255 255
-0.706063985824584961 -3.19473791122436523 0.292786002159118652 0 255 255
-0.703239023685455322 -3.18885493278503418 0.293628007173538208 0 255 255
-0.700366020202636719 -3.18287491798400879 0.294331014156341553 0 255 255
-0.697458982467651367 -3.17684388160705566 0.294874995946884155 0 255 255
-0.694523990154266357 -3.17080402374267578 0.295246005058288574 0 255 255
-0.691518008708953857 -3.16468310356140137 0.295441985130310059 0 255 255
-0.688450992107391357 -3.15852189064025879 0.295457988977432251 0 255 255
-0.685316026210784912 -3.1523289680480957 0.295295000076293945 0 255 255
-0.681931972503662109 -3.14576601982116699 0.294946014881134033 0 255 255
-0.678506970405578613 -3.13924598693847656 0.294431000947952271 0 255 255
-0.674996018409729004 -3.13268709182739258 0.293754011392593384 0 255 255
-0.671419024467468262 -3.12612795829772949 0.292928010225296021 0 255 255
-0.66777801513671875 -3.11956501007080078 0.291965991258621216 0 255 255
-0.664101004600524902 -3.113037109375 0.290886998176574707 0 255 255
-0.660345017910003662 -3.1064600944519043 0.289689004421234131 0 255 255
-0.656656026840209961 -3.10007810592651367 0.288430988788604736 0 255 255
-0.653110027313232422 -3.09401202201843262 0.287155002355575562 0 255 255
-0.649509012699127197 -3.08790898323059082 0.285800009965896606 0 255 255
-0.64587700366973877 -3.08180689811706543 0.2843799889087677 0 255 255
-0.642216980457305908 -3.07570600509643555 0.282902985811233521 0 255 255
-0.63853299617767334 -3.06960511207580566 0.281374990940093994 0 255 255
-0.634827971458435059 -3.06350398063659668 0.279801994562149048 0 255 255
-0.631102979183197021 -3.05740189552307129 0.278187990188598633 0 255 255
-0.627359986305236816 -3.05129694938659668 0.276538997888565063 0 255 255
-0.623620986938476562 -3.04522109031677246 0.274870991706848145 0 255 255
-0.619861006736755371 -3.03913211822509766 0.273180007934570312 0 255 255
-0.616056978702545166 -3.03298807144165039 0.271463990211486816 0 255 255
-0.612228989601135254 -3.02681708335876465 0.269739001989364624 0 255 255
-0.60837399959564209 -3.02061200141906738 0.26801300048828125 0 255 255
-0.604514002799987793 -3.01440191268920898 0.266301989555358887 0 255 255
-0.600597023963928223 -3.0081019401550293 0.264589995145797729 0 255 255
-0.596643984317779541 -3.00174403190612793 0.262890011072158813 0 255 255
-0.592716991901397705 -2.99538707733154297 0.261216014623641968 0 255 255
-0.588719010353088379 -2.98891496658325195 0.259548008441925049 0 255 255
-0.584707975387573242 -2.98241806030273438 0.257912009954452515 0 255 255
-0.580635011196136475 -2.9758150577545166 0.256296008825302124 0 255 255
-0.576524019241333008 -2.96914410591125488 0.254716008901596069 0 255 255
-0.572394013404846191 -2.96243810653686523 0.25318598747253418 0 255 255
-0.568188011646270752 -2.95561408996582031 0.251693010330200195 0 255 255
-0.563923001289367676 -2.94871091842651367 0.250250011682510376 0 255 255
-0.559590995311737061 -2.94173598289489746 0.248866006731987 0 255 255
-0.555189013481140137 -2.93469810485839844 0.247550994157791138 0 255 255
-0.550709009170532227 -2.92760491371154785 0.246316999197006226 0 255 255
-0.546142995357513428 -2.92046403884887695 0.245174005627632141 0 255 255
-0.541513979434967041 -2.91332197189331055 0.244139000773429871 0 255 255
-0.536765992641448975 -2.90610694885253906 0.243208006024360657 0 255 255
-0.531930983066558838 -2.89887189865112305 0.242394000291824341 0 255 255
-0.523353993892669678 -2.88622689247131348 0.24126000702381134 0 255 255
-0.518980979919433594 -2.87989091873168945 0.24084000289440155 0 255 255
-0.514097988605499268 -2.87285304069519043 0.240477994084358215 0 255 255
-0.509216010570526123 -2.86583089828491211 0.240226998925209045 0 255 255
-0.499532997608184814 -2.85187411308288574 0.240104004740715027 0 255 255
-0.494695007801055908 -2.84489989280700684 0.240253999829292297 0 255 255
-0.489874988794326782 -2.83798003196716309 0.240546002984046936 0 255 255
-0.485022991895675659 -2.83105802536010742 0.240977004170417786 0 255 255
-0.480174005031585693 -2.82420802116394043 0.241529002785682678 0 255 255
-0.475365012884140015 -2.81750106811523438 0.242188006639480591 0 255 255
-0.470524996519088745 -2.81085705757141113 0.242951005697250366 0 255 255
-0.465768992900848389 -2.80443096160888672 0.243790999054908752 0 255 255
-0.461055994033813477 -2.79816102981567383 0.244702994823455811 0 255 255
-0.45644301176071167 -2.79210400581359863 0.24566100537776947 0 255 255
-0.451925992965698242 -2.78623509407043457 0.246652007102966309 0 255 255
-0.447450995445251465 -2.78046488761901855 0.247679993510246277 0 255 255
-0.443076997995376587 -2.77484297752380371 0.248725995421409607 0 255 255
-0.438755989074707031 -2.76927709579467773 0.249803006649017334 0 255 255
-0.434558987617492676 -2.76382899284362793 0.250896990299224854 0 255 255
-0.430451005697250366 -2.75842094421386719 0.25202101469039917 0 255 255
-0.426463007926940918 -2.75306892395019531 0.253172993659973145 0 255 255
-0.42190098762512207 -2.74684000015258789 0.25460699200630188 0 255 255
-0.417468994855880737 -2.74061989784240723 0.256089985370635986 0 255 255
-0.413130998611450195 -2.73433494567871094 0.257636994123458862 0 255 255
-0.408932000398635864 -2.72802495956420898 0.259236991405487061 0 255 255
-0.404881000518798828 -2.72168993949890137 0.260885000228881836 0 255 255
-0.401564985513687134 -2.71629500389099121 0.262320011854171753 0 255 255
-0.398431003093719482 -2.71100401878356934 0.263754010200500488 0 255 255
-0.395296007394790649 -2.70554590225219727 0.265260010957717896 0 255 255
-0.392208009958267212 -2.70004701614379883 0.266800999641418457 0 255 255
-0.389108985662460327 -2.69444894790649414 0.268393993377685547 0 255 255
-0.385973989963531494 -2.68874001502990723 0.270042985677719116 0 255 255
-0.382797986268997192 -2.68293905258178711 0.271741986274719238 0 255 255
-0.379613012075424194 -2.67713308334350586 0.273465991020202637 0 255 255
-0.376399993896484375 -2.67130208015441895 0.27522200345993042 0 255 255
-0.373153001070022583 -2.66545701026916504 0.277007997035980225 0 255 255
-0.369877010583877563 -2.65961503982543945 0.278816014528274536 0 255 255
-0.366595000028610229 -2.65382194519042969 0.280629992485046387 0 255 255
-0.363272011280059814 -2.64801502227783203 0.282462000846862793 0 255 255
-0.359926998615264893 -2.64223194122314453 0.284290999174118042 0 255 255
-0.356561988592147827 -2.6364738941192627 0.286101013422012329 0 255 255
-0.353179007768630981 -2.63074302673339844 0.287876993417739868 0 255 255
-0.350235998630523682 -2.62578010559082031 0.289364993572235107 0 255 255
-0.347263991832733154 -2.62081003189086914 0.290800988674163818 0 255 255
-0.344287991523742676 -2.61585903167724609 0.292165011167526245 0 255 255
-0.341311991214752197 -2.61092305183410645 0.293442010879516602 0 255 255
-0.338340014219284058 -2.60599899291992188 0.294618993997573853 0 255 255
-0.335377991199493408 -2.60108494758605957 0.295684009790420532 0 255 255
-0.332450002431869507 -2.59620499610900879 0.296620011329650879 0 255 255
-0.329524010419845581 -2.5912940502166748 0.297428011894226074 0 255 255
-0.32662200927734375 -2.58637690544128418 0.298092007637023926 0 255 255
-0.323749005794525146 -2.58144903182983398 0.298606008291244507 0 255 255
-0.320733994245529175 -2.5762019157409668 0.298985987901687622 0 255 255
-0.317701995372772217 -2.57083892822265625 0.299203008413314819 0 255 255
-0.314731985330581665 -2.56549406051635742 0.29925200343132019 0 255 255
-0.311776012182235718 -2.56008195877075195 0.29913899302482605 0 255 255
-0.308845013380050659 -2.55462503433227539 0.298871010541915894 0 255 255
-0.305949002504348755 -2.54915404319763184 0.298460006713867188 0 255 255
-0.303048014640808105 -2.54359793663024902 0.297910988330841064 0 255 255
-0.300157994031906128 -2.5379951000213623 0.297237008810043335 0 255 255
-0.297533005475997925 -2.53283905982971191 0.296503007411956787 0 255 255
-0.294921010732650757 -2.52766609191894531 0.295680999755859375 0 255 255
-0.292317986488342285 -2.52247810363769531 0.294784009456634521 0 255 255
-0.289622992277145386 -2.51708197593688965 0.293788999319076538 0 255 255
-0.286738008260726929 -2.51128697395324707 0.292665004730224609 0 255 255
-0.283852994441986084 -2.50547909736633301 0.291496008634567261 0 255 255
-0.280968010425567627 -2.49965810775756836 0.290291011333465576 0 255 255
-0.278077006340026855 -2.49382209777832031 0.289056986570358276 0 255 255
-0.275178998708724976 -2.48796701431274414 0.287800014019012451 0 255 255
-0.27228701114654541 -2.48212599754333496 0.286534994840621948 0 255 255
-0.269362002611160278 -2.47622489929199219 0.285250008106231689 0 255 255
-0.266422003507614136 -2.47029900550842285 0.283955007791519165 0 255 255
-0.263467997312545776 -2.46434593200683594 0.282655000686645508 0 255 255
-0.260517001152038574 -2.45839810371398926 0.281358987092971802 0 255 255
-0.257533013820648193 -2.45237398147583008 0.280052006244659424 0 255 255
-0.254552990198135376 -2.44634294509887695 0.278750002384185791 0 255 255
-0.251538008451461792 -2.44022011756896973 0.277435004711151123 0 255 255
-0.248506993055343628 -2.4340360164642334 0.276115000247955322 0 255 255
-0.245459005236625671 -2.42778801918029785 0.274787008762359619 0 255 255
-0.242411002516746521 -2.4215090274810791 0.273463994264602661 0 255 255
-0.239323005080223083 -2.4151151180267334 0.272130995988845825 0 255 255
-0.236502006649971008 -2.40924811363220215 0.270938009023666382 0 255 255
-0.233659997582435608 -2.40331196784973145 0.269762009382247925 0 255 255
-0.230817005038261414 -2.39734697341918945 0.268622994422912598 0 255 255
-0.227851003408432007 -2.39109706878662109 0.267482995986938477 0 255 255
-0.22468799352645874 -2.3843989372253418 0.266332000494003296 0 255 255
-0.221521005034446716 -2.37765693664550781 0.265253990888595581 0 255 255
-0.218358993530273438 -2.37087893486022949 0.264261007308959961 0 255 255
-0.215210005640983582 -2.36406898498535156 0.263363003730773926 0 255 255
-0.212099999189376831 -2.35727095603942871 0.262569010257720947 0 255 255
-0.208996996283531189 -2.3504030704498291 0.261873990297317505 0 255 255
-0.205930992960929871 -2.34351205825805664 0.261283993721008301 0 255 255
-0.202906996011734009 -2.33659100532531738 0.260794013738632202 0 255 255
-0.199926003813743591 -2.32962703704833984 0.260401010513305664 0 255 255
-0.196987003087997437 -2.32260799407958984 0.26009601354598999 0 255 255
-0.1941089928150177 -2.31556892395019531 0.259871989488601685 0 255 255
-0.191256001591682434 -2.30841302871704102 0.259714007377624512 0 255 255
-0.188446998596191406 -2.30117893218994141 0.259613990783691406 0 255 255
-0.185679003596305847 -2.29386210441589355 0.259559005498886108 0 255 255
-0.182964995503425598 -2.28650498390197754 0.25954398512840271 0 255 255
-0.180475994944572449 -2.27954888343811035 0.259571999311447144 0 255 255
-0.178033992648124695 -2.27258992195129395 0.259631991386413574 0 255 255
-0.175643995404243469 -2.26565098762512207 0.259723007678985596 0 255 255
-0.173317000269889832 -2.25875496864318848 0.259842991828918457 0 255 255
-0.171064004302024841 -2.25192689895629883 0.259983986616134644 0 255 255
-0.16890600323677063 -2.24523210525512695 0.260145008563995361 0 255 255
-0.16682000458240509 -2.23860907554626465 0.260325014591217041 0 255 255
-0.164763003587722778 -2.23192000389099121 0.260529011487960815 0 255 255
-0.162722006440162659 -2.22510504722595215 0.260762006044387817 0 255 255
-0.160793006420135498 -2.21846508979797363 0.261025995016098022 0 255 255
-0.158989995718002319 -2.2120358943939209 0.261332005262374878 0 255 255
-0.157284006476402283 -2.20570898056030273 0.261698991060256958 0 255 255
-0.155671998858451843 -2.19947504997253418 0.262142002582550049 0 255 255
-0.1541299968957901 -2.19327807426452637 0.262676000595092773 0 255 255
-0.152630999684333801 -2.18706989288330078 0.263318002223968506 0 255 255
-0.151151999831199646 -2.18082594871520996 0.264082014560699463 0 255 255
-0.149680003523826599 -2.17458391189575195 0.264975011348724365 0 255 255
-0.148182004690170288 -2.16829299926757812 0.266021996736526489 0 255 255
-0.146659001708030701 -2.16203093528747559 0.267224013805389404 0 255 255
-0.145109996199607849 -2.15583109855651855 0.268579989671707153 0 255 255
-0.143546000123023987 -2.14975905418395996 0.270072013139724731 0 255 255
-0.142150998115539551 -2.14438891410827637 0.271535009145736694 0 255 255
-0.140748992562294006 -2.13909196853637695 0.273101985454559326 0 255 255
-0.139348998665809631 -2.13384890556335449 0.274758994579315186 0 255 255
-0.137954995036125183 -2.12863993644714355 0.276490986347198486 0 255 255
-0.13658200204372406 -2.12348008155822754 0.27827000617980957 0 255 255
-0.1352120041847229 -2.11828994750976562 0.280102998018264771 0 255 255
-0.133857995271682739 -2.11309003829956055 0.281960994005203247 0 255 255
-0.132525995373725891 -2.10787200927734375 0.283829987049102783 0 255 255
-0.131229996681213379 -2.1026608943939209 0.285681992769241333 0 255 255
-0.129960000514984131 -2.09739208221435547 0.28752601146697998 0 255 255
-0.12872999906539917 -2.09209489822387695 0.289335012435913086 0 255 255
-0.127542003989219666 -2.08677411079406738 0.29109799861907959 0 255 255
-0.126396998763084412 -2.08142805099487305 0.292802989482879639 0 255 255
-0.125294998288154602 -2.07605910301208496 0.294438987970352173 0 255 255
-0.124234996736049652 -2.07066702842712402 0.295998990535736084 0 255 255
-0.123221002519130707 -2.06528997421264648 0.297461003065109253 0 255 255
-0.122197002172470093 -2.05962705612182617 0.29889601469039917 0 255 255
-0.121160998940467834 -2.05368399620056152 0.300285011529922485 0 255 255
-0.12015099823474884 -2.04770588874816895 0.301559001207351685 0 255 255
-0.119056999683380127 -2.04105806350708008 0.302834004163742065 0 255 255
-0.116931997239589691 -2.02785396575927734 0.304915010929107666 0 255 255
-0.115875996649265289 -2.02127194404602051 0.305716007947921753 0 255 255
-0.114837996661663055 -2.01486492156982422 0.306335002183914185 0 255 255
-0.113834001123905182 -2.00877499580383301 0.306766003370285034 0 255 255
-0.112811997532844543 -2.00271296501159668 0.30703398585319519 0 255 255
-0.111753001809120178 -1.99661099910736084 0.307139009237289429 0 255 255
-0.110656999051570892 -1.99050498008728027 0.307076007127761841 0 255 255
-0.109520003199577332 -1.98439705371856689 0.30684700608253479 0 255 255
-0.108344003558158875 -1.97832202911376953 0.306459009647369385 0 255 255
-0.107104003429412842 -1.97217905521392822 0.305909991264343262 0 255 255
-0.105823002755641937 -1.96608102321624756 0.30522000789642334 0 255 255
-0.104497998952865601 -1.96000802516937256 0.304401010274887085 0 255 255
-0.103134997189044952 -1.95396196842193604 0.303469985723495483 0 255 255
-0.101737000048160553 -1.94794094562530518 0.302441000938415527 0 255 255
-0.100307002663612366 -1.94193994998931885 0.301331013441085815 0 255 255
-0.0988470017910003662 -1.93595600128173828 0.300152987241744995 0 255 255
-0.0973580032587051392 -1.92998600006103516 0.29892200231552124 0 255 255
-0.0958480015397071838 -1.92406201362609863 0.297657996416091919 0 255 255
-0.0942000001668930054 -1.91770398616790771 0.29625999927520752 0 255 255
-0.0925149992108345032 -1.91134500503540039 0.294838994741439819 0 255 255
-0.0909039974212646484 -1.90541505813598633 0.293500006198883057 0 255 255
-0.0892399996519088745 -1.89944005012512207 0.292142003774642944 0 255 255
-0.0875210016965866089 -1.89344501495361328 0.290773987770080566 0 255 255
-0.0857449993491172791 -1.88742995262145996 0.289395987987518311 0 255 255
-0.0839139968156814575 -1.88140296936035156 0.288010001182556152 0 255 255
-0.0820410028100013733 -1.87539994716644287 0.286621004343032837 0 255 255
-0.080105997622013092 -1.86934995651245117 0.285207986831665039 0 255 255
-0.0781219974160194397 -1.86328005790710449 0.283776998519897461 0 255 255
-0.0761030018329620361 -1.85722100734710693 0.282333999872207642 0 255 255
-0.0740270018577575684 -1.85109305381774902 0.280862003564834595 0 255 255
-0.0697449967265129089 -1.83870494365692139 0.277850985527038574 0 255 255
-0.0675500035285949707 -1.8324439525604248 0.276311993598937988 0 255 255
-0.0653249993920326233 -1.82613599300384521 0.274753004312515259 0 255 255
-0.0630740001797676086 -1.81978201866149902 0.273178994655609131 0 255 255
-0.060805000364780426 -1.81338798999786377 0.271598011255264282 0 255 255
-0.0585389994084835052 -1.80700099468231201 0.270029991865158081 0 255 255
-0.0564819984138011932 -1.80116701126098633 0.268617987632751465 0 255 255
-0.0542929992079734802 -1.79490900039672852 0.267129987478256226 0 255 255
-0.0520629994571208954 -1.78846096992492676 0.265635013580322266 0 255 255
-0.0498760007321834564 -1.78203105926513672 0.264191985130310059 0 255 255
-0.0477549992501735687 -1.77566003799438477 0.262822002172470093 0 255 255
-0.045683000236749649 -1.76926803588867188 0.261516004800796509 0 255 255
-0.0436800010502338409 -1.76288700103759766 0.260293006896972656 0 255 255
-0.0417440012097358704 -1.7565000057220459 0.259158998727798462 0 255 255
-0.0398709997534751892 -1.75008797645568848 0.258121013641357422 0 255 255
-0.0380599983036518097 -1.74366497993469238 0.25718998908996582 0 255 255
-0.0362760014832019806 -1.73713302612304688 0.256357014179229736 0 255 255
-0.0345080010592937469 -1.730476975440979 0.255629003047943115 0 255 255
-0.032765999436378479 -1.72377395629882812 0.255014002323150635 0 255 255
-0.0310299992561340332 -1.71697700023651123 0.25450599193572998 0 255 255
-0.0292920004576444626 -1.71008598804473877 0.254099994897842407 0 255 255
-0.0275469999760389328 -1.7031019926071167 0.253787994384765625 0 255 255
-0.0258060004562139511 -1.69607901573181152 0.253564000129699707 0 255 255
-0.0240490008145570755 -1.68894696235656738 0.253421008586883545 0 255 255
-0.0222989991307258606 -1.68177700042724609 0.2533549964427948 0 255 255
-0.0205780006945133209 -1.67463302612304688 0.253369987010955811 0 255 255
-0.0188679993152618408 -1.66742396354675293 0.253475010395050049 0 255 255
-0.0169510003179311752 -1.65929305553436279 0.253713011741638184 0 255 255
-0.015034000389277935 -1.65116596221923828 0.254072010517120361 0 255 255
-0.0131000000983476639 -1.64306294918060303 0.254552006721496582 0 255 255
-0.0111520001664757729 -1.63506102561950684 0.255136013031005859 0 255 255
-0.00916100014001131058 -1.62708699703216553 0.25581398606300354 0 255 255
-0.0071399998851120472 -1.61922597885131836 0.256568014621734619 0 255 255
-0.00509400013834238052 -1.6115109920501709 0.257387995719909668 0 255 255
-0.00303400005213916302 -1.60397303104400635 0.258271008729934692 0 255 255
-0.00106399995274841785 -1.59694600105285645 0.259175986051559448 0 255 255
0.000816999992821365595 -1.59035098552703857 0.260105013847351074 0 255 255
0.00265499996021389961 -1.58396995067596436 0.261079996824264526 0 255 255
0.00443399976938962936 -1.57778799533843994 0.262095987796783447 0 255 255
0.00613099988549947739 -1.57182204723358154 0.263137012720108032 0 255 255
0.00776500022038817406 -1.56594204902648926 0.264214992523193359 0 255 255
0.00930000003427267075 -1.56022405624389648 0.265309005975723267 0 255 255
0.0107410000637173653 -1.55461204051971436 0.266427010297775269 0 255 255
0.0120799997821450233 -1.54912400245666504 0.267562001943588257 0 255 255
0.013337000273168087 -1.54366898536682129 0.268736004829406738 0 255 255
0.0145070003345608711 -1.5382770299911499 0.269941002130508423 0 255 255
0.0155859999358654022 -1.532958984375 0.271174997091293335 0 255 255
0.0167139992117881775 -1.52674305438995361 0.272659987211227417 0 255 255
0.0177430007606744766 -1.52055001258850098 0.274185985326766968 0 255 255
0.0186349991708993912 -1.51466500759124756 0.27567601203918457 0 255 255
0.0193520002067089081 -1.5095069408416748 0.277013003826141357 0 255 255
0.0200169999152421951 -1.50435495376586914 0.278373986482620239 0 255 255
0.0206519998610019684 -1.4991309642791748 0.279774993658065796 0 255 255
0.0212670005857944489 -1.49386894702911377 0.281201988458633423 0 255 255
0.0218710005283355713 -1.48858201503753662 0.282644987106323242 0 255 255
0.0224719997495412827 -1.48327302932739258 0.284097999334335327 0 255 255
0.0230759996920824051 -1.47794902324676514 0.285553991794586182 0 255 255
0.0236879996955394745 -1.47264599800109863 0.286998987197875977 0 255 255
0.0243200007826089859 -1.46730196475982666 0.288446009159088135 0 255 255
0.024976000189781189 -1.46194601058959961 0.28988000750541687 0 255 255
0.025660000741481781 -1.45659101009368896 0.291292011737823486 0 255 255
0.0263669993728399277 -1.45127999782562256 0.292661011219024658 0 255 255
0.0271090008318424225 -1.44595301151275635 0.293992996215820312 0 255 255
0.0278789997100830078 -1.44064497947692871 0.295271009206771851 0 255 255
0.0286720003932714462 -1.43539202213287354 0.296476006507873535 0 255 255
0.0294920001178979874 -1.43014001846313477 0.297614008188247681 0 255 255
0.0303269997239112854 -1.42492401599884033 0.298669993877410889 0 255 255
0.0312360003590583801 -1.41934502124786377 0.299706995487213135 0 255 255
0.0321590006351470947 -1.41372895240783691 0.300657987594604492 0 255 255
0.0330829992890357971 -1.40810203552246094 0.301512986421585083 0 255 255
0.0340019986033439636 -1.40246105194091797 0.302266985177993774 0 255 255
0.0348279997706413269 -1.39730703830718994 0.302855014801025391 0 255 255
0.0356200002133846283 -1.39224505424499512 0.303328990936279297 0 255 255
0.0363899990916252136 -1.3871610164642334 0.303701013326644897 0 255 255
0.0371269993484020233 -1.38208699226379395 0.303965985774993896 0 255 255
0.0378249995410442352 -1.37702202796936035 0.304125010967254639 0 255 255
0.0384799987077713013 -1.3719630241394043 0.304183006286621094 0 255 255
0.0390890017151832581 -1.36689901351928711 0.304143011569976807 0 255 255
0.0396509990096092224 -1.36184597015380859 0.304010987281799316 0 255 255
0.0401739999651908875 -1.35672903060913086 0.303788989782333374 0 255 255
0.0406539998948574066 -1.35160994529724121 0.303488999605178833 0 255 255
0.0411019995808601379 -1.3463890552520752 0.303110986948013306 0 255 255
0.0415109992027282715 -1.34116601943969727 0.302671998739242554 0 255 255
0.0418870002031326294 -1.33590996265411377 0.302177995443344116 0 255 255
0.0422319993376731873 -1.33062100410461426 0.30164000391960144 0 255 255
0.0425489991903305054 -1.32529902458190918 0.301066994667053223 0 255 255
0.0428400002419948578 -1.3199460506439209 0.300467997789382935 0 255 255
0.0431069992482662201 -1.31456494331359863 0.299852997064590454 0 255 255
0.0433810018002986908 -1.30861198902130127 0.299160987138748169 0 255 255
0.0436110012233257294 -1.30317604541778564 0.298530995845794678 0 255 255
0.0438220016658306122 -1.29771995544433594 0.297904014587402344 0 255 255
0.044015001505613327 -1.29224705696105957 0.297284990549087524 0 255 255
0.0441880002617835999 -1.28679502010345459 0.296678990125656128 0 255 255
0.0443449988961219788 -1.28128600120544434 0.296074986457824707 0 255 255
0.04448699951171875 -1.27574396133422852 0.295473992824554443 0 255 255
0.0446159988641738892 -1.27016198635101318 0.294871985912322998 0 255 255
0.0447340011596679688 -1.26453495025634766 0.294263005256652832 0 255 255
0.0448449999094009399 -1.25885701179504395 0.293642014265060425 0 255 255
0.0449500009417533875 -1.25315594673156738 0.293004989624023438 0 255 255
0.0450530014932155609 -1.24736201763153076 0.29233899712562561 0 255 255
0.0451549999415874481 -1.24154794216156006 0.291646003723144531 0 255 255
0.0452600009739398956 -1.23560595512390137 0.290908008813858032 0 255 255
0.0453669987618923187 -1.2296520471572876 0.290136992931365967 0 255 255
0.0454749986529350281 -1.22365999221801758 0.289328008890151978 0 255 255
0.0455810017883777618 -1.21767294406890869 0.288486003875732422 0 255 255
0.0456859990954399109 -1.21161603927612305 0.287602990865707397 0 255 255
0.0457869991660118103 -1.20552599430084229 0.286687999963760376 0 255 255
0.0458809994161128998 -1.19940805435180664 0.285746008157730103 0 255 255
0.0459670014679431915 -1.19330203533172607 0.284792989492416382 0 255 255
0.0460759997367858887 -1.18641495704650879 0.283711999654769897 0 255 255
0.0461720004677772522 -1.17947804927825928 0.282631993293762207 0 255 255
0.0462529994547367096 -1.17249095439910889 0.281569004058837891 0 255 255
0.0463149994611740112 -1.16545295715332031 0.280539005994796753 0 255 255
0.0463580004870891571 -1.15836501121520996 0.279556989669799805 0 255 255
0.0463799983263015747 -1.15140902996063232 0.278656005859375 0 255 255
0.0463799983263015747 -1.14504396915435791 0.277893006801605225 0 255 255
0.0463580004870891571 -1.13866901397705078 0.277195006608963013 0 255 255
0.0463100001215934753 -1.13229596614837646 0.276560992002487183 0 255 255
0.0462319999933242798 -1.12593495845794678 0.275992006063461304 0 255 255
0.0461179986596107483 -1.11960005760192871 0.275483995676040649 0 255 255
0.0459589995443820953 -1.1133430004119873 0.275034010410308838 0 255 255
0.0457439981400966644 -1.10709202289581299 0.274627000093460083 0 255 255
0.0454659983515739441 -1.10088205337524414 0.274255990982055664 0 255 255
0.0451169982552528381 -1.09468603134155273 0.273909002542495728 0 255 255
0.0446930006146430969 -1.0884779691696167 0.273571014404296875 0 255 255
0.044194001704454422 -1.08227705955505371 0.273232996463775635 0 255 255
0.0436160005629062653 -1.07598400115966797 0.272881001234054565 0 255 255
0.0422479994595050812 -1.06325995922088623 0.272132992744445801 0 255 255
0.0414780005812644958 -1.05690503120422363 0.271750986576080322 0 255 255
0.0405439995229244232 -1.04949295520782471 0.27132299542427063 0 255 255
0.0395659990608692169 -1.0421450138092041 0.270915985107421875 0 255 255
0.0385509990155696869 -1.03489196300506592 0.270539999008178711 0 255 255
0.0375550016760826111 -1.0280909538269043 0.27022099494934082 0 255 255
0.0366460010409355164 -1.02212905883789062 0.269977986812591553 0 255 255
0.0357239991426467896 -1.01629304885864258 0.26978600025177002 0 255 255
0.034802999347448349 -1.01065599918365479 0.26965901255607605 0 255 255
0.0338860005140304565 -1.00523900985717773 0.269612014293670654 0 255 255
0.0329720005393028259 -1.00005495548248291 0.269654989242553711 0 255 255
0.0320580005645751953 -0.995087027549743652 0.269793987274169922 0 255 255
0.0311350002884864807 -0.99028700590133667 0.270027011632919312 0 255 255
0.0301799997687339783 -0.985490024089813232 0.270361989736557007 0 255 255
0.029194999486207962 -0.980650007724761963 0.270803987979888916 0 255 255
0.0281869992613792419 -0.975717008113861084 0.271362990140914917 0 255 255
0.0271719992160797119 -0.9706839919090271 0.272049009799957275 0 255 255
0.0261780004948377609 -0.965596973896026611 0.272861003875732422 0 255 255
0.0252160001546144485 -0.960433006286621094 0.273808985948562622 0 255 255
0.0243110004812479019 -0.955271005630493164 0.274877995252609253 0 255 255
0.0234740003943443298 -0.950159013271331787 0.276053011417388916 0 255 255
0.0227109994739294052 -0.945039987564086914 0.277345985174179077 0 255 255
0.0220240000635385513 -0.940032005310058594 0.278710007667541504 0 255 255
0.0214009992778301239 -0.935055971145629883 0.280153989791870117 0 255 255
0.0208420008420944214 -0.930124998092651367 0.281657010316848755 0 255 255
0.0203440003097057343 -0.92522197961807251 0.283208012580871582 0 255 255
0.0199030004441738129 -0.9203299880027771 0.284797012805938721 0 255 255
0.0195170007646083832 -0.915467977523803711 0.286401987075805664 0 255 255
0.0191750004887580872 -0.910566985607147217 0.288035005331039429 0 255 255
0.0188759993761777878 -0.905655026435852051 0.289680987596511841 0 255 255
0.0186149999499320984 -0.900735020637512207 0.291334003210067749 0 255 255
0.0183869991451501846 -0.895843029022216797 0.292980998754501343 0 255 255
0.0181809999048709869 -0.890927016735076904 0.294640004634857178 0 255 255
0.0179890003055334091 -0.886025011539459229 0.296297013759613037 0 255 255
0.0178009998053312302 -0.881145000457763672 0.297948986291885376 0 255 255
0.0176079999655485153 -0.876291990280151367 0.299589991569519043 0 255 255
0.0174100007861852646 -0.87166297435760498 0.301151007413864136 0 255 255
0.0172119997441768646 -0.867509007453918457 0.302543014287948608 0 255 255
0.0169939994812011719 -0.863462984561920166 0.303885996341705322 0 255 255
0.0167490001767873764 -0.859449982643127441 0.305198013782501221 0 255 255
0.016476999968290329 -0.855476975440979004 0.306468009948730469 0 255 255
0.0161700006574392319 -0.850776970386505127 0.307929009199142456 0 255 255
0.0158290006220340729 -0.846105992794036865 0.309330999851226807 0 255 255
0.0154579998925328255 -0.841461002826690674 0.310665994882583618 0 255 255
0.0150579996407032013 -0.836865007877349854 0.311921000480651855 0 255 255
0.0146270003169775009 -0.832257986068725586 0.313106000423431396 0 255 255
0.0141700003296136856 -0.827664971351623535 0.314208000898361206 0 255 255
0.0136900003999471664 -0.823081016540527344 0.315225005149841309 0 255 255
0.0131919998675584793 -0.81853097677230835 0.316146999597549438 0 255 255
0.0126759996637701988 -0.813952982425689697 0.316985011100769043 0 255 255
0.0121480002999305725 -0.809370994567871094 0.317728996276855469 0 255 255
0.0116109997034072876 -0.804783999919891357 0.318379014730453491 0 255 255
0.0110700000077486038 -0.800189018249511719 0.318933993577957153 0 255 255
0.010528000071644783 -0.795584976673126221 0.31939399242401123 0 255 255
0.0100140003487467766 -0.791194021701812744 0.31974300742149353 0 255 255
0.00950399972498416901 -0.78679502010345459 0.320006996393203735 0 255 255
0.00900300033390522003 -0.782401978969573975 0.320188999176025391 0 255 255
0.00850700028240680695 -0.777979016304016113 0.320295989513397217 0 255 255
0.00802499987185001373 -0.773579001426696777 0.320327997207641602 0 255 255
0.00755099998787045479 -0.769150972366333008 0.32028999924659729 0 255 255
0.00708900019526481628 -0.764715015888214111 0.320183008909225464 0 255 255
0.00664399983361363411 -0.76012498140335083 0.319988995790481567 0 255 255
0.00621799984946846962 -0.755541980266571045 0.319727003574371338 0 255 255
0.00581200001761317253 -0.750963985919952393 0.319400995969772339 0 255 255
0.00543199991807341576 -0.746417999267578125 0.319014012813568115 0 255 255
0.00507300021126866341 -0.741849005222320557 0.318565994501113892 0 255 255
0.00473999977111816406 -0.737282991409301758 0.318062007427215576 0 255 255
0.00443399976938962936 -0.732717990875244141 0.317506998777389526 0 255 255
0.00415700022131204605 -0.728151023387908936 0.316908985376358032 0 255 255
0.00390999997034668922 -0.723608970642089844 0.316278994083404541 0 255 255
0.00369099993258714676 -0.719058990478515625 0.315622001886367798 0 255 255
0.00349800009280443192 -0.714469015598297119 0.314942985773086548 0 255 255
0.00333099998533725739 -0.709861993789672852 0.31425100564956665 0 255 255
0.00318700005300343037 -0.70526200532913208 0.313558995723724365 0 255 255
0.00306200003251433372 -0.700578987598419189 0.312857985496520996 0 255 255
0.00295699993148446083 -0.69589698314666748 0.312168002128601074 0 255 255
0.0028699999675154686 -0.691186010837554932 0.311486989259719849 0 255 255
0.00279899989254772663 -0.686450004577636719 0.310817986726760864 0 255 255
0.00274399993941187859 -0.681690990924835205 0.310160011053085327 0 255 255
0.00270500010810792446 -0.67694401741027832 0.309518009424209595 0 255 255
0.00268399994820356369 -0.672402024269104004 0.308917999267578125 0 255 255
0.00268099992536008358 -0.667855024337768555 0.308333009481430054 0 255 255
0.00273500010371208191 -0.6630210280418396 0.307725995779037476 0 255 255
0.00281299999915063381 -0.658173978328704834 0.307137012481689453 0 255 255
0.00291600008495151997 -0.653343021869659424 0.306571006774902344 0 255 255
0.00304399989545345306 -0.648464977741241455 0.306021988391876221 0 255 255
0.00319899991154670715 -0.643570005893707275 0.305496007204055786 0 255 255
0.00337999989278614521 -0.638655006885528564 0.304991006851196289 0 255 255
0.00358600006438791752 -0.633722007274627686 0.304508000612258911 0 255 255
0.00381799996830523014 -0.628768980503082275 0.304042994976043701 0 255 255
0.00407100003212690353 -0.623829007148742676 0.303597986698150635 0 255 255
0.004335000179708004 -0.619027972221374512 0.303180992603302002 0 255 255
0.00460699992254376411 -0.614360988140106201 0.30278700590133667 0 255 255
0.00488900020718574524 -0.609703004360198975 0.30240100622177124 0 255 255
0.0051730000413954258 -0.605090022087097168 0.302022010087966919 0 255 255
0.00545499986037611961 -0.600521981716156006 0.301647990942001343 0 255 255
0.00572900008410215378 -0.595993995666503906 0.301274001598358154 0 255 255
0.00598900020122528076 -0.591535985469818115 0.300904005765914917 0 255 255
0.00623300019651651382 -0.587104976177215576 0.300536006689071655 0 255 255
0.00645300000905990601 -0.582738995552062988 0.300177007913589478 0 255 255
0.00664100004360079765 -0.578489005565643311 0.299836009740829468 0 255 255
0.006794000044465065 -0.574295997619628906 0.299519002437591553 0 255 255
0.00690799998119473457 -0.570109009742736816 0.299232006072998047 0 255 255
0.00700200023129582405 -0.565928995609283447 0.298994004726409912 0 255 255
0.00705899996683001518 -0.561784029006958008 0.29881700873374939 0 255 255
0.00708100013434886932 -0.557713985443115234 0.29871600866317749 0 255 255
0.00706900004297494888 -0.553664028644561768 0.298698991537094116 0 255 255
0.00702799996361136436 -0.549749970436096191 0.29877200722694397 0 255 255
0.00696199992671608925 -0.545913994312286377 0.298936992883682251 0 255 255
0.00687800021842122078 -0.542190015316009521 0.299190998077392578 0 255 255
0.00678599998354911804 -0.538604021072387695 0.299526989459991455 0 255 255
0.00669799977913498878 -0.535108983516693115 0.299943000078201294 0 255 255
0.00662299990653991699 -0.531719982624053955 0.300426989793777466 0 255 255
0.0065629999153316021 -0.528447985649108887 0.300963014364242554 0 255 255
0.00651700003072619438 -0.52522200345993042 0.301546990871429443 0 255 255
0.0064829997718334198 -0.522072017192840576 0.302157998085021973 0 255 255
0.00645700003951787949 -0.519007980823516846 0.302774995565414429 0 255 255
0.0064329998567700386 -0.516018986701965332 0.303382992744445801 0 255 255
0.00640399986878037453 -0.512975990772247314 0.303992986679077148 0 255 255
0.00636400002986192703 -0.509808003902435303 0.304601997137069702 0 255 255
0.00631099985912442207 -0.506699025630950928 0.305160999298095703 0 255 255
0.00624099979177117348 -0.503632009029388428 0.305658996105194092 0 255 255
0.00615500006824731827 -0.500537991523742676 0.306100994348526001 0 255 255
0.00607499992474913597 -0.497711986303329468 0.306454002857208252 0 255 255
0.00597999989986419678 -0.49474799633026123 0.306755989789962769 0 255 255
0.00586599996313452721 -0.491488009691238403 0.307011991739273071 0 255 255
0.00574599998071789742 -0.488207995891571045 0.307199001312255859 0 255 255
0.00562300020828843117 -0.484869986772537231 0.307325005531311035 0 255 255
0.00549999997019767761 -0.481512010097503662 0.307399004697799683 0 255 255
0.00538200000301003456 -0.478157013654708862 0.307433992624282837 0 255 255
0.00527000008150935173 -0.474824011325836182 0.307444006204605103 0 255 255
0.00516600022092461586 -0.471567988395690918 0.307446986436843872 0 255 255
0.00507100019603967667 -0.468389004468917847 0.307460010051727295 0 255 255
0.00498299999162554741 -0.46533501148223877 0.307496011257171631 0 255 255
0.00490099983289837837 -0.462437987327575684 0.307565003633499146 0 255 255
0.00482100015506148338 -0.45964398980140686 0.307675987482070923 0 255 255
0.00474300002679228783 -0.457017987966537476 0.307830005884170532 0 255 255
0.00466099986806511879 -0.454450994729995728 0.308034986257553101 0 255 255
0.00457199988886713982 -0.451918989419937134 0.308293014764785767 0 255 255
0.00447299983352422714 -0.449438989162445068 0.308604001998901367 0 255 255
0.0043600001372396946 -0.447008997201919556 0.308964997529983521 0 255 255
0.00423299986869096756 -0.444640010595321655 0.309367001056671143 0 255 255
0.00408500013872981071 -0.442319005727767944 0.309787988662719727 0 255 255
0.00392000004649162292 -0.440037012100219727 0.31023898720741272 0 255 255
0.00373500003479421139 -0.437788009643554688 0.310710996389389038 0 255 255
0.0035300001036375761 -0.435568004846572876 0.31119498610496521 0 255 255
0.00330199999734759331 -0.433371007442474365 0.311681002378463745 0 255 255
0.00305099994875490665 -0.431205987930297852 0.312157988548278809 0 255 255
0.0027749999426305294 -0.42903900146484375 0.312620013952255249 0 255 255
