ply
format ascii 1.0
element vertex 1320
property float x
property float y
property float z
property uchar red
property uchar green
property uchar blue
element face 0
property list uchar int vertex_indices
end_header
-69.8341 -19.4536 0.0101848 0 200 0
-69.8343 -19.4586 0.0106092 0 200 0
-69.8344 -19.4635 0.0110336 0 200 0
-69.8346 -19.4685 0.0114579 0 200 0
-69.8348 -19.4735 0.0118823 0 200 0
-69.8349 -19.4785 0.0123067 0 200 0
-69.8351 -19.4835 0.012731 0 200 0
-69.8353 -19.4884 0.0131554 0 200 0
-69.8354 -19.4934 0.0135798 0 200 0
-69.8356 -19.4984 0.0140041 0 200 0
-69.8358 -19.5034 0.0144285 0 200 0
-69.8359 -19.5083 0.0148529 0 200 0
-69.8361 -19.5133 0.0152772 0 200 0
-69.8363 -19.5183 0.0157016 0 200 0
-69.8364 -19.5233 0.016126 0 200 0
-69.8366 -19.5283 0.0165503 0 200 0
-69.8368 -19.5332 0.0169747 0 200 0
-69.8369 -19.5382 0.0173991 0 200 0
-69.8371 -19.5432 0.0178234 0 200 0
-69.8373 -19.5482 0.0182478 0 200 0
-69.8374 -19.5532 0.0186722 0 200 0
-69.8376 -19.5581 0.0190965 0 200 0
-69.8378 -19.5631 0.0195209 0 200 0
-69.838 -19.5681 0.0199453 0 200 0
-69.8381 -19.5731 0.0203696 0 200 0
-69.8383 -19.5781 0.020794 0 200 0
-69.8385 -19.583 0.0212184 0 200 0
-69.8386 -19.588 0.0216427 0 200 0
-69.8388 -19.593 0.0220671 0 200 0
-69.839 -19.598 0.0224915 0 200 0
-69.8391 -19.603 0.0229158 0 200 0
-69.8393 -19.6079 0.0233402 0 200 0
-69.8395 -19.6129 0.0237646 0 200 0
-69.8396 -19.6179 0.0241889 0 200 0
-69.8398 -19.6229 0.0246133 0 200 0
-69.84 -19.6278 0.0250377 0 200 0
-69.8401 -19.6328 0.025462 0 200 0
-69.8403 -19.6378 0.0258864 0 200 0
-69.8405 -19.6428 0.0263108 0 200 0
-69.8406 -19.6478 0.0267351 0 200 0
-69.8408 -19.6527 0.0271595 0 200 0
-69.841 -19.6577 0.0275839 0 200 0
-69.8411 -19.6627 0.0280082 0 200 0
-69.8413 -19.6677 0.0284326 0 200 0
-69.8415 -19.6727 0.028857 0 200 0
-69.8417 -19.6776 0.0292813 0 200 0
-69.8418 -19.6826 0.0297057 0 200 0
-69.842 -19.6876 0.0301301 0 200 0
-69.8422 -19.6926 0.0305545 0 200 0
-69.8423 -19.6976 0.0309788 0 200 0
-69.8425 -19.7025 0.0314032 0 200 0
-69.8427 -19.7075 0.0318276 0 200 0
-69.8428 -19.7125 0.0322519 0 200 0
-69.843 -19.7175 0.0326763 0 200 0
-69.8432 -19.7225 0.0331007 0 200 0
-69.8433 -19.7274 0.033525 0 200 0
-69.8435 -19.7324 0.0339494 0 200 0
-69.8437 -19.7374 0.0343738 0 200 0
-69.8438 -19.7424 0.0347981 0 200 0
-69.844 -19.7473 0.0352225 0 200 0
-69.8442 -19.7523 0.0356469 0 200 0
-69.8444 -19.7573 0.0360712 0 200 0
-69.8445 -19.7623 0.0364956 0 200 0
-69.8447 -19.7673 0.03692 0 200 0
-69.8449 -19.7722 0.0373443 0 200 0
-69.845 -19.7772 0.0377687 0 200 0
-69.8452 -19.7822 0.0381931 0 200 0
-69.8454 -19.7872 0.0386174 0 200 0
-69.8455 -19.7922 0.0390418 0 200 0
-69.8457 -19.7971 0.0394662 0 200 0
-69.8459 -19.8021 0.0398905 0 200 0
-69.846 -19.8071 0.0403149 0 200 0
-69.8462 -19.8121 0.0407393 0 200 0
-69.8464 -19.8171 0.0411636 0 200 0
-69.8465 -19.822 0.041588 0 200 0
-69.8467 -19.827 0.0420124 0 200 0
-70.7389 -18.2557 0 0 200 0
-70.7398 -18.2606 -6.46947e-05 0 200 0
-70.7408 -18.2655 -0.000129389 0 200 0
-70.7417 -18.2704 -0.000194084 0 200 0
-70.7427 -18.2754 -0.000258779 0 200 0
-70.7437 -18.2803 -0.000323474 0 200 0
-70.7446 -18.2852 -0.000388168 0 200 0
-70.7456 -18.2901 -0.000452863 0 200 0
-70.7465 -18.295 -0.000517558 0 200 0
-70.7475 -18.2999 -0.000582253 0 200 0
-70.7484 -18.3048 -0.000646947 0 200 0
-70.7494 -18.3097 -0.000711642 0 200 0
-70.7504 -18.3146 -0.000776337 0 200 0
-70.7513 -18.3195 -0.000841032 0 200 0
-70.7523 -18.3244 -0.000905726 0 200 0
-70.7532 -18.3293 -0.000970421 0 200 0
-70.7542 -18.3342 -0.00103512 0 200 0
-70.7551 -18.3391 -0.00109981 0 200 0
-70.7561 -18.3441 -0.00116451 0 200 0
-70.757 -18.349 -0.0012292 0 200 0
-70.758 -18.3539 -0.00129389 0 200 0
-70.759 -18.3588 -0.00135859 0 200 0
-70.7599 -18.3637 -0.00142328 0 200 0
-70.7609 -18.3686 -0.00148798 0 200 0
-70.7618 -18.3735 -0.00155267 0 200 0
-70.7628 -18.3784 -0.00161737 0 200 0
-70.7637 -18.3833 -0.00168206 0 200 0
-70.7647 -18.3882 -0.00174676 0 200 0
-70.7657 -18.3931 -0.00181145 0 200 0
-70.7666 -18.398 -0.00187615 0 200 0
-70.7676 -18.4029 -0.00194084 0 200 0
-70.7685 -18.4078 -0.00200554 0 200 0
-70.7695 -18.4128 -0.00207023 0 200 0
-70.7704 -18.4177 -0.00213493 0 200 0
-70.7714 -18.4226 -0.00219962 0 200 0
-70.7723 -18.4275 -0.00226432 0 200 0
-70.7733 -18.4324 -0.00232901 0 200 0
-70.7743 -18.4373 -0.00239371 0 200 0
-70.7752 -18.4422 -0.0024584 0 200 0
-70.7762 -18.4471 -0.00252309 0 200 0
-70.7771 -18.452 -0.00258779 0 200 0
-70.7781 -18.4569 -0.00265248 0 200 0
-70.779 -18.4618 -0.00271718 0 200 0
-70.78 -18.4667 -0.00278187 0 200 0
-70.781 -18.4716 -0.00284657 0 200 0
-70.7819 -18.4765 -0.00291126 0 200 0
-70.7829 -18.4815 -0.00297596 0 200 0
-70.7838 -18.4864 -0.00304065 0 200 0
-70.7848 -18.4913 -0.00310535 0 200 0
-70.7857 -18.4962 -0.00317004 0 200 0
-70.7867 -18.5011 -0.00323474 0 200 0
-70.7877 -18.506 -0.00329943 0 200 0
-70.7886 -18.5109 -0.00336413 0 200 0
-70.7896 -18.5158 -0.00342882 0 200 0
-70.7905 -18.5207 -0.00349352 0 200 0
-70.7915 -18.5256 -0.00355821 0 200 0
-70.7924 -18.5305 -0.00362291 0 200 0
-70.7934 -18.5354 -0.0036876 0 200 0
-70.7943 -18.5403 -0.00375229 0 200 0
-70.7953 -18.5453 -0.00381699 0 200 0
-70.7963 -18.5502 -0.00388168 0 200 0
-70.7972 -18.5551 -0.00394638 0 200 0
-70.7982 -18.56 -0.00401107 0 200 0
-70.7991 -18.5649 -0.00407577 0 200 0
-70.8001 -18.5698 -0.00414046 0 200 0
-70.801 -18.5747 -0.00420516 0 200 0
-70.802 -18.5796 -0.00426985 0 200 0
-70.8029 -18.5845 -0.00433455 0 200 0
-70.8039 -18.5894 -0.00439924 0 200 0
-70.8049 -18.5943 -0.00446394 0 200 0
-70.8058 -18.5992 -0.00452863 0 200 0
-70.8068 -18.6041 -0.00459333 0 200 0
-70.8077 -18.609 -0.00465802 0 200 0
-70.8087 -18.614 -0.00472272 0 200 0
-70.8096 -18.6189 -0.00478741 0 200 0
-70.8106 -18.6238 -0.00485211 0 200 0
-70.8116 -18.6287 -0.0049168 0 200 0
-70.8125 -18.6336 -0.00498149 0 200 0
-70.8135 -18.6385 -0.00504619 0 200 0
-70.8144 -18.6434 -0.00511088 0 200 0
-70.8154 -18.6483 -0.00517558 0 200 0
-70.8163 -18.6532 -0.00524027 0 200 0
-70.8173 -18.6581 -0.00530497 0 200 0
-70.8183 -18.663 -0.00536966 0 200 0
-70.8192 -18.6679 -0.00543436 0 200 0
-70.8202 -18.6728 -0.00549905 0 200 0
-70.8211 -18.6777 -0.00556375 0 200 0
-70.8221 -18.6827 -0.00562844 0 200 0
-70.823 -18.6876 -0.00569314 0 200 0
-70.824 -18.6925 -0.00575783 0 200 0
-70.8249 -18.6974 -0.00582253 0 200 0
-70.8259 -18.7023 -0.00588722 0 200 0
-70.8269 -18.7072 -0.00595192 0 200 0
-70.8278 -18.7121 -0.00601661 0 200 0
-70.8288 -18.717 -0.00608131 0 200 0
-70.8297 -18.7219 -0.006146 0 200 0
-70.8307 -18.7268 -0.0062107 0 200 0
-70.8316 -18.7317 -0.00627539 0 200 0
-70.8326 -18.7366 -0.00634008 0 200 0
-70.8335 -18.7415 -0.00640478 0 200 0
-71.5846 -17.5833 0 0 200 0
-71.5849 -17.5883 0.000164628 0 200 0
-71.5853 -17.5933 0.000329255 0 200 0
-71.5856 -17.5983 0.000493883 0 200 0
-71.5859 -17.6032 0.00065851 0 200 0
-71.5862 -17.6082 0.000823137 0 200 0
-71.5865 -17.6132 0.000987765 0 200 0
-71.5868 -17.6182 0.00115239 0 200 0
-71.5871 -17.6232 0.00131702 0 200 0
-71.5874 -17.6282 0.00148165 0 200 0
-71.5877 -17.6332 0.00164627 0 200 0
-71.588 -17.6382 0.0018109 0 200 0
-71.5883 -17.6431 0.00197553 0 200 0
-71.5886 -17.6481 0.00214016 0 200 0
-71.5889 -17.6531 0.00230478 0 200 0
-71.5892 -17.6581 0.00246941 0 200 0
-71.5895 -17.6631 0.00263404 0 200 0
-71.5898 -17.6681 0.00279867 0 200 0
-71.5901 -17.6731 0.00296329 0 200 0
-71.5904 -17.6781 0.00312792 0 200 0
-71.5908 -17.683 0.00329255 0 200 0
-71.5911 -17.688 0.00345718 0 200 0
-71.5914 -17.693 0.0036218 0 200 0
-71.5917 -17.698 0.00378643 0 200 0
-71.592 -17.703 0.00395106 0 200 0
-71.5923 -17.708 0.00411569 0 200 0
-71.5926 -17.713 0.00428031 0 200 0
-71.5929 -17.718 0.00444494 0 200 0
-71.5932 -17.7229 0.00460957 0 200 0
-71.5935 -17.7279 0.0047742 0 200 0
-71.5938 -17.7329 0.00493883 0 200 0
-71.5941 -17.7379 0.00510345 0 200 0
-71.5944 -17.7429 0.00526808 0 200 0
-71.5947 -17.7479 0.00543271 0 200 0
-71.595 -17.7529 0.00559733 0 200 0
-71.5953 -17.7579 0.00576196 0 200 0
-71.5956 -17.7629 0.00592659 0 200 0
-71.596 -17.7678 0.00609122 0 200 0
-71.5963 -17.7728 0.00625585 0 200 0
-71.5966 -17.7778 0.00642047 0 200 0
-71.5969 -17.7828 0.0065851 0 200 0
-71.5972 -17.7878 0.00674973 0 200 0
-71.5975 -17.7928 0.00691435 0 200 0
-71.5978 -17.7978 0.00707898 0 200 0
-71.5981 -17.8028 0.00724361 0 200 0
-71.5984 -17.8077 0.00740824 0 200 0
-71.5987 -17.8127 0.00757287 0 200 0
-71.599 -17.8177 0.00773749 0 200 0
-71.5993 -17.8227 0.00790212 0 200 0
-71.5996 -17.8277 0.00806675 0 200 0
-71.5999 -17.8327 0.00823138 0 200 0
-71.6002 -17.8377 0.008396 0 200 0
-71.6005 -17.8427 0.00856063 0 200 0
-71.6008 -17.8476 0.00872526 0 200 0
-71.6012 -17.8526 0.00888988 0 200 0
-71.6015 -17.8576 0.00905451 0 200 0
-71.6018 -17.8626 0.00921914 0 200 0
-71.6021 -17.8676 0.00938377 0 200 0
-71.6024 -17.8726 0.00954839 0 200 0
-71.6027 -17.8776 0.00971302 0 200 0
-71.603 -17.8826 0.00987765 0 200 0
-71.6033 -17.8876 0.0100423 0 200 0
-71.6036 -17.8925 0.0102069 0 200 0
-71.6039 -17.8975 0.0103715 0 200 0
-71.6042 -17.9025 0.0105362 0 200 0
-71.6045 -17.9075 0.0107008 0 200 0
-71.6048 -17.9125 0.0108654 0 200 0
-71.6051 -17.9175 0.01103 0 200 0
-71.6054 -17.9225 0.0111947 0 200 0
-71.6057 -17.9275 0.0113593 0 200 0
-71.606 -17.9324 0.0115239 0 200 0
-71.6063 -17.9374 0.0116886 0 200 0
-71.6067 -17.9424 0.0118532 0 200 0
-71.607 -17.9474 0.0120178 0 200 0
-71.6073 -17.9524 0.0121824 0 200 0
-71.6076 -17.9574 0.0123471 0 200 0
-71.6079 -17.9624 0.0125117 0 200 0
-71.6082 -17.9674 0.0126763 0 200 0
-71.6085 -17.9723 0.0128409 0 200 0
-71.6088 -17.9773 0.0130056 0 200 0
-71.6091 -17.9823 0.0131702 0 200 0
-71.6094 -17.9873 0.0133348 0 200 0
-71.6097 -17.9923 0.0134995 0 200 0
-71.61 -17.9973 0.0136641 0 200 0
-71.6103 -18.0023 0.0138287 0 200 0
-71.6106 -18.0073 0.0139933 0 200 0
-71.6109 -18.0123 0.014158 0 200 0
-71.6112 -18.0172 0.0143226 0 200 0
-71.6115 -18.0222 0.0144872 0 200 0
-71.6119 -18.0272 0.0146518 0 200 0
-71.6122 -18.0322 0.0148165 0 200 0
-71.6125 -18.0372 0.0149811 0 200 0
-71.6128 -18.0422 0.0151457 0 200 0
-71.6131 -18.0472 0.0153104 0 200 0
-71.6134 -18.0522 0.015475 0 200 0
-71.6137 -18.0571 0.0156396 0 200 0
-71.614 -18.0621 0.0158042 0 200 0
-71.6143 -18.0671 0.0159689 0 200 0
-71.6146 -18.0721 0.0161335 0 200 0
-71.6149 -18.0771 0.0162981 0 200 0
-72.2943 -17.0373 0 0 200 0
-72.2941 -17.0423 0.000126746 0 200 0
-72.2939 -17.0473 0.000253491 0 200 0
-72.2937 -17.0523 0.000380237 0 200 0
-72.2935 -17.0573 0.000506982 0 200 0
-72.2934 -17.0623 0.000633728 0 200 0
-72.2932 -17.0673 0.000760474 0 200 0
-72.293 -17.0723 0.000887219 0 200 0
-72.2928 -17.0773 0.00101396 0 200 0
-72.2926 -17.0823 0.00114071 0 200 0
-72.2924 -17.0873 0.00126746 0 200 0
-72.2922 -17.0923 0.0013942 0 200 0
-72.292 -17.0973 0.00152095 0 200 0
-72.2918 -17.1023 0.00164769 0 200 0
-72.2916 -17.1073 0.00177444 0 200 0
-72.2914 -17.1123 0.00190118 0 200 0
-72.2912 -17.1172 0.00202793 0 200 0
-72.291 -17.1222 0.00215468 0 200 0
-72.2908 -17.1272 0.00228142 0 200 0
-72.2906 -17.1322 0.00240817 0 200 0
-72.2904 -17.1372 0.00253491 0 200 0
-72.2902 -17.1422 0.00266166 0 200 0
-72.29 -17.1472 0.0027884 0 200 0
-72.2898 -17.1522 0.00291515 0 200 0
-72.2896 -17.1572 0.00304189 0 200 0
-72.2894 -17.1622 0.00316864 0 200 0
-72.2892 -17.1672 0.00329539 0 200 0
-72.289 -17.1722 0.00342213 0 200 0
-72.2888 -17.1772 0.00354888 0 200 0
-72.2887 -17.1822 0.00367562 0 200 0
-72.2885 -17.1872 0.00380237 0 200 0
-72.2883 -17.1922 0.00392911 0 200 0
-72.2881 -17.1972 0.00405586 0 200 0
-72.2879 -17.2022 0.00418261 0 200 0
-72.2877 -17.2071 0.00430935 0 200 0
-72.2875 -17.2121 0.0044361 0 200 0
-72.2873 -17.2171 0.00456284 0 200 0
-72.2871 -17.2221 0.00468959 0 200 0
-72.2869 -17.2271 0.00481633 0 200 0
-72.2867 -17.2321 0.00494308 0 200 0
-72.2865 -17.2371 0.00506982 0 200 0
-72.2863 -17.2421 0.00519657 0 200 0
-72.2861 -17.2471 0.00532332 0 200 0
-72.2859 -17.2521 0.00545006 0 200 0
-72.2857 -17.2571 0.00557681 0 200 0
-72.2855 -17.2621 0.00570355 0 200 0
-72.2853 -17.2671 0.0058303 0 200 0
-72.2851 -17.2721 0.00595704 0 200 0
-72.2849 -17.2771 0.00608379 0 200 0
-72.2848 -17.2821 0.00621053 0 200 0
-72.2846 -17.2871 0.00633728 0 200 0
-72.2844 -17.2921 0.00646403 0 200 0
-72.2842 -17.2971 0.00659077 0 200 0
-72.284 -17.302 0.00671752 0 200 0
-72.2838 -17.307 0.00684426 0 200 0
-72.2836 -17.312 0.00697101 0 200 0
-72.2834 -17.317 0.00709775 0 200 0
-72.2832 -17.322 0.0072245 0 200 0
-72.283 -17.327 0.00735125 0 200 0
-72.2828 -17.332 0.00747799 0 200 0
-72.2826 -17.337 0.00760474 0 200 0
-72.2824 -17.342 0.00773148 0 200 0
-72.2822 -17.347 0.00785823 0 200 0
-72.282 -17.352 0.00798497 0 200 0
-72.2818 -17.357 0.00811172 0 200 0
-72.2816 -17.362 0.00823846 0 200 0
-72.2814 -17.367 0.00836521 0 200 0
-72.2812 -17.372 0.00849196 0 200 0
-72.281 -17.377 0.0086187 0 200 0
-72.2808 -17.382 0.00874545 0 200 0
-72.2806 -17.387 0.00887219 0 200 0
-72.2804 -17.392 0.00899894 0 200 0
-72.2803 -17.3969 0.00912568 0 200 0
-72.2801 -17.4019 0.00925243 0 200 0
-72.2799 -17.4069 0.00937917 0 200 0
-72.2797 -17.4119 0.00950592 0 200 0
-72.2795 -17.4169 0.00963267 0 200 0
-72.2793 -17.4219 0.00975941 0 200 0
-72.2791 -17.4269 0.00988616 0 200 0
-72.2789 -17.4319 0.0100129 0 200 0
-72.2787 -17.4369 0.0101396 0 200 0
-72.2785 -17.4419 0.0102664 0 200 0
-72.2783 -17.4469 0.0103931 0 200 0
-72.2781 -17.4519 0.0105199 0 200 0
-72.2779 -17.4569 0.0106466 0 200 0
-72.2777 -17.4619 0.0107734 0 200 0
-72.2775 -17.4669 0.0109001 0 200 0
-72.2773 -17.4719 0.0110269 0 200 0
-72.2771 -17.4769 0.0111536 0 200 0
-72.2769 -17.4819 0.0112804 0 200 0
-72.2767 -17.4868 0.0114071 0 200 0
-72.2765 -17.4918 0.0115338 0 200 0
-72.2763 -17.4968 0.0116606 0 200 0
-72.2762 -17.5018 0.0117873 0 200 0
-72.276 -17.5068 0.0119141 0 200 0
-72.2758 -17.5118 0.0120408 0 200 0
-72.2756 -17.5168 0.0121676 0 200 0
-72.2754 -17.5218 0.0122943 0 200 0
-72.2752 -17.5268 0.0124211 0 200 0
-72.275 -17.5318 0.0125478 0 200 0
-72.9122 -16.709 0 0 200 0
-72.9114 -16.7139 0.000304204 0 200 0
-72.9106 -16.7189 0.000608408 0 200 0
-72.9098 -16.7238 0.000912612 0 200 0
-72.9089 -16.7287 0.00121682 0 200 0
-72.9081 -16.7336 0.00152102 0 200 0
-72.9073 -16.7386 0.00182522 0 200 0
-72.9065 -16.7435 0.00212943 0 200 0
-72.9057 -16.7484 0.00243363 0 200 0
-72.9049 -16.7533 0.00273783 0 200 0
-72.9041 -16.7583 0.00304204 0 200 0
-72.9032 -16.7632 0.00334624 0 200 0
-72.9024 -16.7681 0.00365045 0 200 0
-72.9016 -16.773 0.00395465 0 200 0
-72.9008 -16.778 0.00425885 0 200 0
-72.9 -16.7829 0.00456306 0 200 0
-72.8992 -16.7878 0.00486726 0 200 0
-72.8983 -16.7927 0.00517147 0 200 0
-72.8975 -16.7976 0.00547567 0 200 0
-72.8967 -16.8026 0.00577987 0 200 0
-72.8959 -16.8075 0.00608408 0 200 0
-72.8951 -16.8124 0.00638828 0 200 0
-72.8943 -16.8173 0.00669248 0 200 0
-72.8935 -16.8223 0.00699669 0 200 0
-72.8926 -16.8272 0.00730089 0 200 0
-72.8918 -16.8321 0.0076051 0 200 0
-72.891 -16.837 0.0079093 0 200 0
-72.8902 -16.842 0.0082135 0 200 0
-72.8894 -16.8469 0.00851771 0 200 0
-72.8886 -16.8518 0.00882191 0 200 0
-72.8877 -16.8567 0.00912612 0 200 0
-72.8869 -16.8617 0.00943032 0 200 0
-72.8861 -16.8666 0.00973452 0 200 0
-72.8853 -16.8715 0.0100387 0 200 0
-72.8845 -16.8764 0.0103429 0 200 0
-72.8837 -16.8814 0.0106471 0 200 0
-72.8829 -16.8863 0.0109513 0 200 0
-72.882 -16.8912 0.0112555 0 200 0
-72.8812 -16.8961 0.0115597 0 200 0
-72.8804 -16.901 0.011864 0 200 0
-72.8796 -16.906 0.0121682 0 200 0
-72.8788 -16.9109 0.0124724 0 200 0
-72.878 -16.9158 0.0127766 0 200 0
-72.8772 -16.9207 0.0130808 0 200 0
-72.8763 -16.9257 0.013385 0 200 0
-72.8755 -16.9306 0.0136892 0 200 0
-72.8747 -16.9355 0.0139934 0 200 0
-72.8739 -16.9404 0.0142976 0 200 0
-72.8731 -16.9454 0.0146018 0 200 0
-72.8723 -16.9503 0.014906 0 200 0
-72.8715 -16.9552 0.0152102 0 200 0
-72.8706 -16.9601 0.0155144 0 200 0
-72.8698 -16.9651 0.0158186 0 200 0
-72.869 -16.97 0.0161228 0 200 0
-72.8682 -16.9749 0.016427 0 200 0
-72.8674 -16.9798 0.0167312 0 200 0
-72.8666 -16.9848 0.0170354 0 200 0
-72.8657 -16.9897 0.0173396 0 200 0
-72.8649 -16.9946 0.0176438 0 200 0
-72.8641 -16.9995 0.017948 0 200 0
-72.8633 -17.0044 0.0182522 0 200 0
-72.8625 -17.0094 0.0185564 0 200 0
-72.8617 -17.0143 0.0188606 0 200 0
-72.8609 -17.0192 0.0191648 0 200 0
-72.86 -17.0241 0.019469 0 200 0
-72.8592 -17.0291 0.0197733 0 200 0
-72.8584 -17.034 0.0200775 0 200 0
-72.8576 -17.0389 0.0203817 0 200 0
-72.8568 -17.0438 0.0206859 0 200 0
-72.856 -17.0488 0.0209901 0 200 0
-72.8551 -17.0537 0.0212943 0 200 0
-72.8543 -17.0586 0.0215985 0 200 0
-72.8535 -17.0635 0.0219027 0 200 0
-72.8527 -17.0685 0.0222069 0 200 0
-72.8519 -17.0734 0.0225111 0 200 0
-72.8511 -17.0783 0.0228153 0 200 0
-72.8503 -17.0832 0.0231195 0 200 0
-72.8494 -17.0882 0.0234237 0 200 0
-72.8486 -17.0931 0.0237279 0 200 0
-72.8478 -17.098 0.0240321 0 200 0
-72.847 -17.1029 0.0243363 0 200 0
-72.8462 -17.1078 0.0246405 0 200 0
-72.8454 -17.1128 0.0249447 0 200 0
-72.8446 -17.1177 0.0252489 0 200 0
-72.8437 -17.1226 0.0255531 0 200 0
-72.8429 -17.1275 0.0258573 0 200 0
-72.8421 -17.1325 0.0261615 0 200 0
-72.8413 -17.1374 0.0264657 0 200 0
-72.8405 -17.1423 0.0267699 0 200 0
-72.8397 -17.1472 0.0270741 0 200 0
-72.8388 -17.1522 0.0273783 0 200 0
-72.838 -17.1571 0.0276826 0 200 0
-72.8372 -17.162 0.0279868 0 200 0
-72.8364 -17.1669 0.028291 0 200 0
-72.8356 -17.1719 0.0285952 0 200 0
-72.8348 -17.1768 0.0288994 0 200 0
-72.834 -17.1817 0.0292036 0 200 0
-72.8331 -17.1866 0.0295078 0 200 0
-72.8323 -17.1915 0.029812 0 200 0
-72.8315 -17.1965 0.0301162 0 200 0
-73.5275 -16.4644 0 0 200 0
-73.5263 -16.4693 0.000391326 0 200 0
-73.5252 -16.4741 0.000782651 0 200 0
-73.524 -16.479 0.00117398 0 200 0
-73.5228 -16.4838 0.0015653 0 200 0
-73.5217 -16.4887 0.00195663 0 200 0
-73.5205 -16.4935 0.00234795 0 200 0
-73.5193 -16.4984 0.00273928 0 200 0
-73.5182 -16.5032 0.0031306 0 200 0
-73.517 -16.5081 0.00352193 0 200 0
-73.5159 -16.5129 0.00391326 0 200 0
-73.5147 -16.5178 0.00430458 0 200 0
-73.5135 -16.5226 0.00469591 0 200 0
-73.5124 -16.5274 0.00508723 0 200 0
-73.5112 -16.5323 0.00547856 0 200 0
-73.5101 -16.5371 0.00586988 0 200 0
-73.5089 -16.542 0.00626121 0 200 0
-73.5078 -16.5468 0.00665253 0 200 0
-73.5066 -16.5517 0.00704386 0 200 0
-73.5054 -16.5565 0.00743519 0 200 0
-73.5043 -16.5614 0.00782651 0 200 0
-73.5031 -16.5662 0.00821784 0 200 0
-73.502 -16.5711 0.00860916 0 200 0
-73.5008 -16.5759 0.00900049 0 200 0
-73.4996 -16.5808 0.00939181 0 200 0
-73.4985 -16.5856 0.00978314 0 200 0
-73.4973 -16.5905 0.0101745 0 200 0
-73.4962 -16.5953 0.0105658 0 200 0
-73.495 -16.6002 0.0109571 0 200 0
-73.4938 -16.605 0.0113484 0 200 0
-73.4927 -16.6099 0.0117398 0 200 0
-73.4915 -16.6147 0.0121311 0 200 0
-73.4904 -16.6196 0.0125224 0 200 0
-73.4892 -16.6244 0.0129137 0 200 0
-73.488 -16.6293 0.0133051 0 200 0
-73.4869 -16.6341 0.0136964 0 200 0
-73.4857 -16.6389 0.0140877 0 200 0
-73.4846 -16.6438 0.014479 0 200 0
-73.4834 -16.6486 0.0148704 0 200 0
-73.4822 -16.6535 0.0152617 0 200 0
-73.4811 -16.6583 0.015653 0 200 0
-73.4799 -16.6632 0.0160443 0 200 0
-73.4788 -16.668 0.0164357 0 200 0
-73.4776 -16.6729 0.016827 0 200 0
-73.4764 -16.6777 0.0172183 0 200 0
-73.4753 -16.6826 0.0176097 0 200 0
-73.4741 -16.6874 0.018001 0 200 0
-73.473 -16.6923 0.0183923 0 200 0
-73.4718 -16.6971 0.0187836 0 200 0
-73.4706 -16.702 0.019175 0 200 0
-73.4695 -16.7068 0.0195663 0 200 0
-73.4683 -16.7117 0.0199576 0 200 0
-73.4672 -16.7165 0.0203489 0 200 0
-73.466 -16.7214 0.0207403 0 200 0
-73.4648 -16.7262 0.0211316 0 200 0
-73.4637 -16.7311 0.0215229 0 200 0
-73.4625 -16.7359 0.0219142 0 200 0
-73.4614 -16.7408 0.0223056 0 200 0
-73.4602 -16.7456 0.0226969 0 200 0
-73.459 -16.7504 0.0230882 0 200 0
-73.4579 -16.7553 0.0234795 0 200 0
-73.4567 -16.7601 0.0238709 0 200 0
-73.4556 -16.765 0.0242622 0 200 0
-73.4544 -16.7698 0.0246535 0 200 0
-73.4532 -16.7747 0.0250448 0 200 0
-73.4521 -16.7795 0.0254362 0 200 0
-73.4509 -16.7844 0.0258275 0 200 0
-73.4498 -16.7892 0.0262188 0 200 0
-73.4486 -16.7941 0.0266101 0 200 0
-73.4474 -16.7989 0.0270015 0 200 0
-73.4463 -16.8038 0.0273928 0 200 0
-73.4451 -16.8086 0.0277841 0 200 0
-73.444 -16.8135 0.0281754 0 200 0
-73.4428 -16.8183 0.0285668 0 200 0
-73.4416 -16.8232 0.0289581 0 200 0
-73.4405 -16.828 0.0293494 0 200 0
-73.4393 -16.8329 0.0297407 0 200 0
-73.4382 -16.8377 0.0301321 0 200 0
-73.437 -16.8426 0.0305234 0 200 0
-73.4358 -16.8474 0.0309147 0 200 0
-73.4347 -16.8523 0.031306 0 200 0
-73.4335 -16.8571 0.0316974 0 200 0
-73.4324 -16.8619 0.0320887 0 200 0
-73.4312 -16.8668 0.03248 0 200 0
-73.43 -16.8716 0.0328713 0 200 0
-73.4289 -16.8765 0.0332627 0 200 0
-73.4277 -16.8813 0.033654 0 200 0
-73.4266 -16.8862 0.0340453 0 200 0
-73.4254 -16.891 0.0344367 0 200 0
-73.4242 -16.8959 0.034828 0 200 0
-73.4231 -16.9007 0.0352193 0 200 0
-73.4219 -16.9056 0.0356106 0 200 0
-73.4208 -16.9104 0.036002 0 200 0
-73.4196 -16.9153 0.0363933 0 200 0
-73.4184 -16.9201 0.0367846 0 200 0
-73.4173 -16.925 0.0371759 0 200 0
-73.4161 -16.9298 0.0375673 0 200 0
-73.415 -16.9347 0.0379586 0 200 0
-73.4138 -16.9395 0.0383499 0 200 0
-73.4126 -16.9444 0.0387412 0 200 0
-74.1427 -16.2324 0 0 200 0
-74.1415 -16.2373 0.0004087 0 200 0
-74.1402 -16.2421 0.0008174 0 200 0
-74.139 -16.2469 0.0012261 0 200 0
-74.1378 -16.2518 0.0016348 0 200 0
-74.1366 -16.2566 0.0020435 0 200 0
-74.1353 -16.2614 0.0024522 0 200 0
-74.1341 -16.2663 0.0028609 0 200 0
-74.1329 -16.2711 0.0032696 0 200 0
-74.1316 -16.2759 0.0036783 0 200 0
-74.1304 -16.2807 0.004087 0 200 0
-74.1292 -16.2856 0.0044957 0 200 0
-74.128 -16.2904 0.0049044 0 200 0
-74.1267 -16.2952 0.0053131 0 200 0
-74.1255 -16.3001 0.0057218 0 200 0
-74.1243 -16.3049 0.0061305 0 200 0
-74.123 -16.3097 0.0065392 0 200 0
-74.1218 -16.3145 0.0069479 0 200 0
-74.1206 -16.3194 0.0073566 0 200 0
-74.1193 -16.3242 0.0077653 0 200 0
-74.1181 -16.329 0.008174 0 200 0
-74.1169 -16.3339 0.0085827 0 200 0
-74.1157 -16.3387 0.0089914 0 200 0
-74.1144 -16.3435 0.0094001 0 200 0
-74.1132 -16.3483 0.0098088 0 200 0
-74.112 -16.3532 0.0102175 0 200 0
-74.1107 -16.358 0.0106262 0 200 0
-74.1095 -16.3628 0.0110349 0 200 0
-74.1083 -16.3677 0.0114436 0 200 0
-74.1071 -16.3725 0.0118523 0 200 0
-74.1058 -16.3773 0.012261 0 200 0
-74.1046 -16.3822 0.0126697 0 200 0
-74.1034 -16.387 0.0130784 0 200 0
-74.1021 -16.3918 0.0134871 0 200 0
-74.1009 -16.3966 0.0138958 0 200 0
-74.0997 -16.4015 0.0143045 0 200 0
-74.0984 -16.4063 0.0147132 0 200 0
-74.0972 -16.4111 0.0151219 0 200 0
-74.096 -16.416 0.0155306 0 200 0
-74.0948 -16.4208 0.0159393 0 200 0
-74.0935 -16.4256 0.016348 0 200 0
-74.0923 -16.4304 0.0167567 0 200 0
-74.0911 -16.4353 0.0171654 0 200 0
-74.0899 -16.4401 0.0175741 0 200 0
-74.0886 -16.4449 0.0179828 0 200 0
-74.0874 -16.4498 0.0183915 0 200 0
-74.0862 -16.4546 0.0188002 0 200 0
-74.0849 -16.4594 0.0192089 0 200 0
-74.0837 -16.4643 0.0196176 0 200 0
-74.0825 -16.4691 0.0200263 0 200 0
-74.0812 -16.4739 0.020435 0 200 0
-74.08 -16.4787 0.0208437 0 200 0
-74.0788 -16.4836 0.0212524 0 200 0
-74.0776 -16.4884 0.0216611 0 200 0
-74.0763 -16.4932 0.0220698 0 200 0
-74.0751 -16.4981 0.0224785 0 200 0
-74.0739 -16.5029 0.0228872 0 200 0
-74.0726 -16.5077 0.0232959 0 200 0
-74.0714 -16.5125 0.0237046 0 200 0
-74.0702 -16.5174 0.0241133 0 200 0
-74.069 -16.5222 0.024522 0 200 0
-74.0677 -16.527 0.0249307 0 200 0
-74.0665 -16.5319 0.0253394 0 200 0
-74.0653 -16.5367 0.0257481 0 200 0
-74.064 -16.5415 0.0261568 0 200 0
-74.0628 -16.5464 0.0265655 0 200 0
-74.0616 -16.5512 0.0269742 0 200 0
-74.0604 -16.556 0.0273829 0 200 0
-74.0591 -16.5608 0.0277916 0 200 0
-74.0579 -16.5657 0.0282003 0 200 0
-74.0567 -16.5705 0.028609 0 200 0
-74.0554 -16.5753 0.0290177 0 200 0
-74.0542 -16.5802 0.0294264 0 200 0
-74.053 -16.585 0.0298351 0 200 0
-74.0518 -16.5898 0.0302438 0 200 0
-74.0505 -16.5946 0.0306525 0 200 0
-74.0493 -16.5995 0.0310612 0 200 0
-74.0481 -16.6043 0.0314699 0 200 0
-74.0468 -16.6091 0.0318786 0 200 0
-74.0456 -16.614 0.0322873 0 200 0
-74.0444 -16.6188 0.032696 0 200 0
-74.0431 -16.6236 0.0331047 0 200 0
-74.0419 -16.6285 0.0335134 0 200 0
-74.0407 -16.6333 0.0339221 0 200 0
-74.0395 -16.6381 0.0343308 0 200 0
-74.0382 -16.6429 0.0347395 0 200 0
-74.037 -16.6478 0.0351482 0 200 0
-74.0358 -16.6526 0.0355569 0 200 0
-74.0345 -16.6574 0.0359656 0 200 0
-74.0333 -16.6623 0.0363743 0 200 0
-74.0321 -16.6671 0.036783 0 200 0
-74.0309 -16.6719 0.0371917 0 200 0
-74.0296 -16.6767 0.0376004 0 200 0
-74.0284 -16.6816 0.0380091 0 200 0
-74.0272 -16.6864 0.0384178 0 200 0
-74.0259 -16.6912 0.0388265 0 200 0
-74.0247 -16.6961 0.0392352 0 200 0
-74.0235 -16.7009 0.0396439 0 200 0
-74.0223 -16.7057 0.0400526 0 200 0
-74.021 -16.7106 0.0404613 0 200 0
-74.7266 -16.0261 0 0 200 0
-74.7254 -16.0309 0.00038474 0 200 0
-74.7242 -16.0358 0.00076948 0 200 0
-74.723 -16.0406 0.00115422 0 200 0
-74.7218 -16.0454 0.00153896 0 200 0
-74.7205 -16.0503 0.0019237 0 200 0
-74.7193 -16.0551 0.00230844 0 200 0
-74.7181 -16.0599 0.00269318 0 200 0
-74.7169 -16.0648 0.00307792 0 200 0
-74.7157 -16.0696 0.00346266 0 200 0
-74.7145 -16.0744 0.0038474 0 200 0
-74.7133 -16.0793 0.00423214 0 200 0
-74.712 -16.0841 0.00461688 0 200 0
-74.7108 -16.0889 0.00500162 0 200 0
-74.7096 -16.0938 0.00538636 0 200 0
-74.7084 -16.0986 0.0057711 0 200 0
-74.7072 -16.1035 0.00615584 0 200 0
-74.706 -16.1083 0.00654058 0 200 0
-74.7048 -16.1131 0.00692532 0 200 0
-74.7035 -16.118 0.00731006 0 200 0
-74.7023 -16.1228 0.0076948 0 200 0
-74.7011 -16.1276 0.00807954 0 200 0
-74.6999 -16.1325 0.00846428 0 200 0
-74.6987 -16.1373 0.00884902 0 200 0
-74.6975 -16.1421 0.00923376 0 200 0
-74.6963 -16.147 0.0096185 0 200 0
-74.695 -16.1518 0.0100032 0 200 0
-74.6938 -16.1566 0.010388 0 200 0
-74.6926 -16.1615 0.0107727 0 200 0
-74.6914 -16.1663 0.0111575 0 200 0
-74.6902 -16.1711 0.0115422 0 200 0
-74.689 -16.176 0.0119269 0 200 0
-74.6878 -16.1808 0.0123117 0 200 0
-74.6865 -16.1856 0.0126964 0 200 0
-74.6853 -16.1905 0.0130812 0 200 0
-74.6841 -16.1953 0.0134659 0 200 0
-74.6829 -16.2002 0.0138506 0 200 0
-74.6817 -16.205 0.0142354 0 200 0
-74.6805 -16.2098 0.0146201 0 200 0
-74.6793 -16.2147 0.0150049 0 200 0
-74.678 -16.2195 0.0153896 0 200 0
-74.6768 -16.2243 0.0157743 0 200 0
-74.6756 -16.2292 0.0161591 0 200 0
-74.6744 -16.234 0.0165438 0 200 0
-74.6732 -16.2388 0.0169286 0 200 0
-74.672 -16.2437 0.0173133 0 200 0
-74.6708 -16.2485 0.017698 0 200 0
-74.6695 -16.2533 0.0180828 0 200 0
-74.6683 -16.2582 0.0184675 0 200 0
-74.6671 -16.263 0.0188523 0 200 0
-74.6659 -16.2678 0.019237 0 200 0
-74.6647 -16.2727 0.0196217 0 200 0
-74.6635 -16.2775 0.0200065 0 200 0
-74.6623 -16.2824 0.0203912 0 200 0
-74.661 -16.2872 0.020776 0 200 0
-74.6598 -16.292 0.0211607 0 200 0
-74.6586 -16.2969 0.0215454 0 200 0
-74.6574 -16.3017 0.0219302 0 200 0
-74.6562 -16.3065 0.0223149 0 200 0
-74.655 -16.3114 0.0226997 0 200 0
-74.6537 -16.3162 0.0230844 0 200 0
-74.6525 -16.321 0.0234691 0 200 0
-74.6513 -16.3259 0.0238539 0 200 0
-74.6501 -16.3307 0.0242386 0 200 0
-74.6489 -16.3355 0.0246234 0 200 0
-74.6477 -16.3404 0.0250081 0 200 0
-74.6465 -16.3452 0.0253928 0 200 0
-74.6452 -16.35 0.0257776 0 200 0
-74.644 -16.3549 0.0261623 0 200 0
-74.6428 -16.3597 0.0265471 0 200 0
-74.6416 -16.3645 0.0269318 0 200 0
-74.6404 -16.3694 0.0273165 0 200 0
-74.6392 -16.3742 0.0277013 0 200 0
-74.638 -16.3791 0.028086 0 200 0
-74.6367 -16.3839 0.0284708 0 200 0
-74.6355 -16.3887 0.0288555 0 200 0
-74.6343 -16.3936 0.0292402 0 200 0
-74.6331 -16.3984 0.029625 0 200 0
-74.6319 -16.4032 0.0300097 0 200 0
-74.6307 -16.4081 0.0303945 0 200 0
-74.6295 -16.4129 0.0307792 0 200 0
-74.6283 -16.4177 0.0311639 0 200 0
-74.627 -16.4226 0.0315487 0 200 0
-74.6258 -16.4274 0.0319334 0 200 0
-74.6246 -16.4322 0.0323182 0 200 0
-74.6234 -16.4371 0.0327029 0 200 0
-74.6222 -16.4419 0.0330876 0 200 0
-74.621 -16.4467 0.0334724 0 200 0
-74.6198 -16.4516 0.0338571 0 200 0
-74.6185 -16.4564 0.0342419 0 200 0
-74.6173 -16.4612 0.0346266 0 200 0
-74.6161 -16.4661 0.0350114 0 200 0
-74.6149 -16.4709 0.0353961 0 200 0
-74.6137 -16.4758 0.0357808 0 200 0
-74.6125 -16.4806 0.0361656 0 200 0
-74.6113 -16.4854 0.0365503 0 200 0
-74.61 -16.4903 0.0369351 0 200 0
-74.6088 -16.4951 0.0373198 0 200 0
-74.6076 -16.4999 0.0377045 0 200 0
-74.6064 -16.5048 0.0380893 0 200 0
-75.3824 -15.864 0 0 200 0
-75.3812 -15.8688 0.00043744 0 200 0
-75.38 -15.8737 0.00087488 0 200 0
-75.3788 -15.8785 0.00131232 0 200 0
-75.3776 -15.8834 0.00174976 0 200 0
-75.3764 -15.8882 0.0021872 0 200 0
-75.3753 -15.893 0.00262464 0 200 0
-75.3741 -15.8979 0.00306208 0 200 0
-75.3729 -15.9027 0.00349952 0 200 0
-75.3717 -15.9075 0.00393696 0 200 0
-75.3705 -15.9124 0.0043744 0 200 0
-75.3694 -15.9172 0.00481184 0 200 0
-75.3682 -15.9221 0.00524928 0 200 0
-75.367 -15.9269 0.00568672 0 200 0
-75.3658 -15.9317 0.00612416 0 200 0
-75.3646 -15.9366 0.0065616 0 200 0
-75.3634 -15.9414 0.00699904 0 200 0
-75.3623 -15.9463 0.00743648 0 200 0
-75.3611 -15.9511 0.00787392 0 200 0
-75.3599 -15.9559 0.00831136 0 200 0
-75.3587 -15.9608 0.0087488 0 200 0
-75.3575 -15.9656 0.00918624 0 200 0
-75.3563 -15.9704 0.00962368 0 200 0
-75.3552 -15.9753 0.0100611 0 200 0
-75.354 -15.9801 0.0104986 0 200 0
-75.3528 -15.985 0.010936 0 200 0
-75.3516 -15.9898 0.0113734 0 200 0
-75.3504 -15.9946 0.0118109 0 200 0
-75.3493 -15.9995 0.0122483 0 200 0
-75.3481 -16.0043 0.0126858 0 200 0
-75.3469 -16.0092 0.0131232 0 200 0
-75.3457 -16.014 0.0135606 0 200 0
-75.3445 -16.0188 0.0139981 0 200 0
-75.3433 -16.0237 0.0144355 0 200 0
-75.3422 -16.0285 0.014873 0 200 0
-75.341 -16.0333 0.0153104 0 200 0
-75.3398 -16.0382 0.0157478 0 200 0
-75.3386 -16.043 0.0161853 0 200 0
-75.3374 -16.0479 0.0166227 0 200 0
-75.3362 -16.0527 0.0170602 0 200 0
-75.3351 -16.0575 0.0174976 0 200 0
-75.3339 -16.0624 0.017935 0 200 0
-75.3327 -16.0672 0.0183725 0 200 0
-75.3315 -16.0721 0.0188099 0 200 0
-75.3303 -16.0769 0.0192474 0 200 0
-75.3291 -16.0817 0.0196848 0 200 0
-75.328 -16.0866 0.0201222 0 200 0
-75.3268 -16.0914 0.0205597 0 200 0
-75.3256 -16.0962 0.0209971 0 200 0
-75.3244 -16.1011 0.0214346 0 200 0
-75.3232 -16.1059 0.021872 0 200 0
-75.3221 -16.1108 0.0223094 0 200 0
-75.3209 -16.1156 0.0227469 0 200 0
-75.3197 -16.1204 0.0231843 0 200 0
-75.3185 -16.1253 0.0236218 0 200 0
-75.3173 -16.1301 0.0240592 0 200 0
-75.3161 -16.135 0.0244966 0 200 0
-75.3149 -16.1398 0.0249341 0 200 0
-75.3138 -16.1446 0.0253715 0 200 0
-75.3126 -16.1495 0.025809 0 200 0
-75.3114 -16.1543 0.0262464 0 200 0
-75.3102 -16.1591 0.0266838 0 200 0
-75.309 -16.164 0.0271213 0 200 0
-75.3079 -16.1688 0.0275587 0 200 0
-75.3067 -16.1737 0.0279962 0 200 0
-75.3055 -16.1785 0.0284336 0 200 0
-75.3043 -16.1833 0.028871 0 200 0
-75.3031 -16.1882 0.0293085 0 200 0
-75.3019 -16.193 0.0297459 0 200 0
-75.3008 -16.1978 0.0301834 0 200 0
-75.2996 -16.2027 0.0306208 0 200 0
-75.2984 -16.2075 0.0310582 0 200 0
-75.2972 -16.2124 0.0314957 0 200 0
-75.296 -16.2172 0.0319331 0 200 0
-75.2948 -16.222 0.0323706 0 200 0
-75.2937 -16.2269 0.032808 0 200 0
-75.2925 -16.2317 0.0332454 0 200 0
-75.2913 -16.2366 0.0336829 0 200 0
-75.2901 -16.2414 0.0341203 0 200 0
-75.2889 -16.2462 0.0345578 0 200 0
-75.2878 -16.2511 0.0349952 0 200 0
-75.2866 -16.2559 0.0354326 0 200 0
-75.2854 -16.2607 0.0358701 0 200 0
-75.2842 -16.2656 0.0363075 0 200 0
-75.283 -16.2704 0.036745 0 200 0
-75.2818 -16.2753 0.0371824 0 200 0
-75.2807 -16.2801 0.0376198 0 200 0
-75.2795 -16.2849 0.0380573 0 200 0
-75.2783 -16.2898 0.0384947 0 200 0
-75.2771 -16.2946 0.0389322 0 200 0
-75.2759 -16.2995 0.0393696 0 200 0
-75.2747 -16.3043 0.039807 0 200 0
-75.2736 -16.3091 0.0402445 0 200 0
-75.2724 -16.314 0.0406819 0 200 0
-75.2712 -16.3188 0.0411194 0 200 0
-75.27 -16.3236 0.0415568 0 200 0
-75.2688 -16.3285 0.0419942 0 200 0
-75.2676 -16.3333 0.0424317 0 200 0
-75.2665 -16.3382 0.0428691 0 200 0
-75.2653 -16.343 0.0433066 0 200 0
-76.1471 -15.6976 0 0 200 0
-76.1457 -15.7024 0.000367073 0 200 0
-76.1443 -15.7072 0.000734146 0 200 0
-76.1429 -15.712 0.00110122 0 200 0
-76.1415 -15.7168 0.00146829 0 200 0
-76.1402 -15.7215 0.00183536 0 200 0
-76.1388 -15.7263 0.00220244 0 200 0
-76.1374 -15.7311 0.00256951 0 200 0
-76.136 -15.7359 0.00293658 0 200 0
-76.1346 -15.7407 0.00330366 0 200 0
-76.1332 -15.7455 0.00367073 0 200 0
-76.1318 -15.7503 0.0040378 0 200 0
-76.1304 -15.7551 0.00440487 0 200 0
-76.129 -15.7598 0.00477195 0 200 0
-76.1276 -15.7646 0.00513902 0 200 0
-76.1262 -15.7694 0.00550609 0 200 0
-76.1248 -15.7742 0.00587316 0 200 0
-76.1234 -15.779 0.00624024 0 200 0
-76.122 -15.7838 0.00660731 0 200 0
-76.1206 -15.7886 0.00697438 0 200 0
-76.1192 -15.7934 0.00734146 0 200 0
-76.1179 -15.7981 0.00770853 0 200 0
-76.1165 -15.8029 0.0080756 0 200 0
-76.1151 -15.8077 0.00844267 0 200 0
-76.1137 -15.8125 0.00880975 0 200 0
-76.1123 -15.8173 0.00917682 0 200 0
-76.1109 -15.8221 0.00954389 0 200 0
-76.1095 -15.8269 0.00991097 0 200 0
-76.1081 -15.8317 0.010278 0 200 0
-76.1067 -15.8364 0.0106451 0 200 0
-76.1053 -15.8412 0.0110122 0 200 0
-76.1039 -15.846 0.0113793 0 200 0
-76.1025 -15.8508 0.0117463 0 200 0
-76.1011 -15.8556 0.0121134 0 200 0
-76.0997 -15.8604 0.0124805 0 200 0
-76.0983 -15.8652 0.0128475 0 200 0
-76.0969 -15.87 0.0132146 0 200 0
-76.0955 -15.8747 0.0135817 0 200 0
-76.0942 -15.8795 0.0139488 0 200 0
-76.0928 -15.8843 0.0143158 0 200 0
-76.0914 -15.8891 0.0146829 0 200 0
-76.09 -15.8939 0.01505 0 200 0
-76.0886 -15.8987 0.0154171 0 200 0
-76.0872 -15.9035 0.0157841 0 200 0
-76.0858 -15.9083 0.0161512 0 200 0
-76.0844 -15.913 0.0165183 0 200 0
-76.083 -15.9178 0.0168853 0 200 0
-76.0816 -15.9226 0.0172524 0 200 0
-76.0802 -15.9274 0.0176195 0 200 0
-76.0788 -15.9322 0.0179866 0 200 0
-76.0774 -15.937 0.0183536 0 200 0
-76.076 -15.9418 0.0187207 0 200 0
-76.0746 -15.9466 0.0190878 0 200 0
-76.0732 -15.9514 0.0194549 0 200 0
-76.0719 -15.9561 0.0198219 0 200 0
-76.0705 -15.9609 0.020189 0 200 0
-76.0691 -15.9657 0.0205561 0 200 0
-76.0677 -15.9705 0.0209231 0 200 0
-76.0663 -15.9753 0.0212902 0 200 0
-76.0649 -15.9801 0.0216573 0 200 0
-76.0635 -15.9849 0.0220244 0 200 0
-76.0621 -15.9897 0.0223914 0 200 0
-76.0607 -15.9944 0.0227585 0 200 0
-76.0593 -15.9992 0.0231256 0 200 0
-76.0579 -16.004 0.0234927 0 200 0
-76.0565 -16.0088 0.0238597 0 200 0
-76.0551 -16.0136 0.0242268 0 200 0
-76.0537 -16.0184 0.0245939 0 200 0
-76.0523 -16.0232 0.024961 0 200 0
-76.0509 -16.028 0.025328 0 200 0
-76.0495 -16.0327 0.0256951 0 200 0
-76.0482 -16.0375 0.0260622 0 200 0
-76.0468 -16.0423 0.0264292 0 200 0
-76.0454 -16.0471 0.0267963 0 200 0
-76.044 -16.0519 0.0271634 0 200 0
-76.0426 -16.0567 0.0275305 0 200 0
-76.0412 -16.0615 0.0278975 0 200 0
-76.0398 -16.0663 0.0282646 0 200 0
-76.0384 -16.071 0.0286317 0 200 0
-76.037 -16.0758 0.0289988 0 200 0
-76.0356 -16.0806 0.0293658 0 200 0
-76.0342 -16.0854 0.0297329 0 200 0
-76.0328 -16.0902 0.0301 0 200 0
-76.0314 -16.095 0.030467 0 200 0
-76.03 -16.0998 0.0308341 0 200 0
-76.0286 -16.1046 0.0312012 0 200 0
-76.0272 -16.1093 0.0315683 0 200 0
-76.0258 -16.1141 0.0319353 0 200 0
-76.0245 -16.1189 0.0323024 0 200 0
-76.0231 -16.1237 0.0326695 0 200 0
-76.0217 -16.1285 0.0330366 0 200 0
-76.0203 -16.1333 0.0334036 0 200 0
-76.0189 -16.1381 0.0337707 0 200 0
-76.0175 -16.1429 0.0341378 0 200 0
-76.0161 -16.1476 0.0345048 0 200 0
-76.0147 -16.1524 0.0348719 0 200 0
-76.0133 -16.1572 0.035239 0 200 0
-76.0119 -16.162 0.0356061 0 200 0
-76.0105 -16.1668 0.0359731 0 200 0
-76.0091 -16.1716 0.0363402 0 200 0
-77.3662 -15.2412 0 0 200 0
-77.3617 -15.2434 0.000110324 0 200 0
-77.3572 -15.2456 0.000220648 0 200 0
-77.3527 -15.2478 0.000330972 0 200 0
-77.3482 -15.2499 0.000441295 0 200 0
-77.3438 -15.2521 0.000551619 0 200 0
-77.3392 -15.2543 0.000661943 0 200 0
-77.3348 -15.2565 0.000772267 0 200 0
-77.3303 -15.2587 0.000882591 0 200 0
-77.3258 -15.2608 0.000992915 0 200 0
-77.3213 -15.263 0.00110324 0 200 0
-77.3168 -15.2652 0.00121356 0 200 0
-77.3123 -15.2674 0.00132389 0 200 0
-77.3078 -15.2696 0.00143421 0 200 0
-77.3033 -15.2718 0.00154453 0 200 0
-77.2988 -15.2739 0.00165486 0 200 0
-77.2943 -15.2761 0.00176518 0 200 0
-77.2898 -15.2783 0.00187551 0 200 0
-77.2853 -15.2805 0.00198583 0 200 0
-77.2808 -15.2827 0.00209615 0 200 0
-77.2763 -15.2849 0.00220648 0 200 0
-77.2718 -15.287 0.0023168 0 200 0
-77.2673 -15.2892 0.00242712 0 200 0
-77.2628 -15.2914 0.00253745 0 200 0
-77.2583 -15.2936 0.00264777 0 200 0
-77.2538 -15.2958 0.0027581 0 200 0
-77.2493 -15.298 0.00286842 0 200 0
-77.2448 -15.3001 0.00297874 0 200 0
-77.2403 -15.3023 0.00308907 0 200 0
-77.2358 -15.3045 0.00319939 0 200 0
-77.2313 -15.3067 0.00330972 0 200 0
-77.2268 -15.3089 0.00342004 0 200 0
-77.2223 -15.3111 0.00353036 0 200 0
-77.2178 -15.3132 0.00364069 0 200 0
-77.2133 -15.3154 0.00375101 0 200 0
-77.2088 -15.3176 0.00386134 0 200 0
-77.2043 -15.3198 0.00397166 0 200 0
-77.1998 -15.322 0.00408198 0 200 0
-77.1953 -15.3241 0.00419231 0 200 0
-77.1908 -15.3263 0.00430263 0 200 0
-77.1864 -15.3285 0.00441295 0 200 0
-77.1819 -15.3307 0.00452328 0 200 0
-77.1774 -15.3329 0.0046336 0 200 0
-77.1729 -15.3351 0.00474393 0 200 0
-77.1684 -15.3372 0.00485425 0 200 0
-77.1639 -15.3394 0.00496457 0 200 0
-77.1594 -15.3416 0.0050749 0 200 0
-77.1549 -15.3438 0.00518522 0 200 0
-77.1504 -15.346 0.00529555 0 200 0
-77.1459 -15.3482 0.00540587 0 200 0
-77.1414 -15.3503 0.00551619 0 200 0
-77.1369 -15.3525 0.00562652 0 200 0
-77.1324 -15.3547 0.00573684 0 200 0
-77.1279 -15.3569 0.00584716 0 200 0
-77.1234 -15.3591 0.00595749 0 200 0
-77.1189 -15.3613 0.00606781 0 200 0
-77.1144 -15.3634 0.00617814 0 200 0
-77.1099 -15.3656 0.00628846 0 200 0
-77.1054 -15.3678 0.00639878 0 200 0
-77.1009 -15.37 0.00650911 0 200 0
-77.0964 -15.3722 0.00661943 0 200 0
-77.0919 -15.3744 0.00672976 0 200 0
-77.0874 -15.3765 0.00684008 0 200 0
-77.0829 -15.3787 0.0069504 0 200 0
-77.0784 -15.3809 0.00706073 0 200 0
-77.0739 -15.3831 0.00717105 0 200 0
-77.0694 -15.3853 0.00728138 0 200 0
-77.0649 -15.3874 0.0073917 0 200 0
-77.0604 -15.3896 0.00750202 0 200 0
-77.0559 -15.3918 0.00761235 0 200 0
-77.0514 -15.394 0.00772267 0 200 0
-77.0469 -15.3962 0.00783299 0 200 0
-77.0424 -15.3984 0.00794332 0 200 0
-77.0379 -15.4005 0.00805364 0 200 0
-77.0335 -15.4027 0.00816397 0 200 0
-77.029 -15.4049 0.00827429 0 200 0
-77.0245 -15.4071 0.00838461 0 200 0
-77.02 -15.4093 0.00849494 0 200 0
-77.0155 -15.4115 0.00860526 0 200 0
-77.011 -15.4136 0.00871558 0 200 0
-77.0065 -15.4158 0.00882591 0 200 0
-77.002 -15.418 0.00893623 0 200 0
-76.9975 -15.4202 0.00904656 0 200 0
-76.993 -15.4224 0.00915688 0 200 0
-76.9885 -15.4246 0.0092672 0 200 0
-76.984 -15.4267 0.00937753 0 200 0
-76.9795 -15.4289 0.00948785 0 200 0
-76.975 -15.4311 0.00959818 0 200 0
-76.9705 -15.4333 0.0097085 0 200 0
-76.966 -15.4355 0.00981882 0 200 0
-76.9615 -15.4377 0.00992915 0 200 0
-76.957 -15.4398 0.0100395 0 200 0
-76.9525 -15.442 0.0101498 0 200 0
-76.948 -15.4442 0.0102601 0 200 0
-76.9435 -15.4464 0.0103704 0 200 0
-76.939 -15.4486 0.0104808 0 200 0
-76.9345 -15.4507 0.0105911 0 200 0
-76.93 -15.4529 0.0107014 0 200 0
-76.9255 -15.4551 0.0108117 0 200 0
-76.921 -15.4573 0.0109221 0 200 0
-79.0014 -14.3993 0 0 200 0
-78.9965 -14.3989 0.000178353 0 200 0
-78.9915 -14.3984 0.000356706 0 200 0
-78.9865 -14.398 0.000535058 0 200 0
-78.9815 -14.3976 0.000713411 0 200 0
-78.9765 -14.3972 0.000891764 0 200 0
-78.9716 -14.3967 0.00107012 0 200 0
-78.9666 -14.3963 0.00124847 0 200 0
-78.9616 -14.3959 0.00142682 0 200 0
-78.9566 -14.3955 0.00160517 0 200 0
-78.9516 -14.395 0.00178353 0 200 0
-78.9467 -14.3946 0.00196188 0 200 0
-78.9417 -14.3942 0.00214023 0 200 0
-78.9367 -14.3938 0.00231859 0 200 0
-78.9317 -14.3934 0.00249694 0 200 0
-78.9268 -14.3929 0.00267529 0 200 0
-78.9218 -14.3925 0.00285364 0 200 0
-78.9168 -14.3921 0.003032 0 200 0
-78.9118 -14.3917 0.00321035 0 200 0
-78.9068 -14.3912 0.0033887 0 200 0
-78.9019 -14.3908 0.00356706 0 200 0
-78.8969 -14.3904 0.00374541 0 200 0
-78.8919 -14.39 0.00392376 0 200 0
-78.8869 -14.3895 0.00410211 0 200 0
-78.8819 -14.3891 0.00428047 0 200 0
-78.877 -14.3887 0.00445882 0 200 0
-78.872 -14.3883 0.00463717 0 200 0
-78.867 -14.3878 0.00481552 0 200 0
-78.862 -14.3874 0.00499388 0 200 0
-78.857 -14.387 0.00517223 0 200 0
-78.8521 -14.3866 0.00535058 0 200 0
-78.8471 -14.3861 0.00552894 0 200 0
-78.8421 -14.3857 0.00570729 0 200 0
-78.8371 -14.3853 0.00588564 0 200 0
-78.8321 -14.3849 0.00606399 0 200 0
-78.8272 -14.3845 0.00624235 0 200 0
-78.8222 -14.384 0.0064207 0 200 0
-78.8172 -14.3836 0.00659905 0 200 0
-78.8122 -14.3832 0.0067774 0 200 0
-78.8073 -14.3828 0.00695576 0 200 0
-78.8023 -14.3823 0.00713411 0 200 0
-78.7973 -14.3819 0.00731246 0 200 0
-78.7923 -14.3815 0.00749082 0 200 0
-78.7873 -14.3811 0.00766917 0 200 0
-78.7824 -14.3806 0.00784752 0 200 0
-78.7774 -14.3802 0.00802587 0 200 0
-78.7724 -14.3798 0.00820423 0 200 0
-78.7674 -14.3794 0.00838258 0 200 0
-78.7624 -14.3789 0.00856093 0 200 0
-78.7575 -14.3785 0.00873929 0 200 0
-78.7525 -14.3781 0.00891764 0 200 0
-78.7475 -14.3777 0.00909599 0 200 0
-78.7425 -14.3773 0.00927434 0 200 0
-78.7375 -14.3768 0.0094527 0 200 0
-78.7326 -14.3764 0.00963105 0 200 0
-78.7276 -14.376 0.0098094 0 200 0
-78.7226 -14.3756 0.00998775 0 200 0
-78.7176 -14.3751 0.0101661 0 200 0
-78.7127 -14.3747 0.0103445 0 200 0
-78.7077 -14.3743 0.0105228 0 200 0
-78.7027 -14.3739 0.0107012 0 200 0
-78.6977 -14.3734 0.0108795 0 200 0
-78.6927 -14.373 0.0110579 0 200 0
-78.6878 -14.3726 0.0112362 0 200 0
-78.6828 -14.3722 0.0114146 0 200 0
-78.6778 -14.3717 0.0115929 0 200 0
-78.6728 -14.3713 0.0117713 0 200 0
-78.6678 -14.3709 0.0119496 0 200 0
-78.6629 -14.3705 0.012128 0 200 0
-78.6579 -14.37 0.0123063 0 200 0
-78.6529 -14.3696 0.0124847 0 200 0
-78.6479 -14.3692 0.012663 0 200 0
-78.643 -14.3688 0.0128414 0 200 0
-78.638 -14.3684 0.0130198 0 200 0
-78.633 -14.3679 0.0131981 0 200 0
-78.628 -14.3675 0.0133765 0 200 0
-78.623 -14.3671 0.0135548 0 200 0
-78.6181 -14.3667 0.0137332 0 200 0
-78.6131 -14.3662 0.0139115 0 200 0
-78.6081 -14.3658 0.0140899 0 200 0
-78.6031 -14.3654 0.0142682 0 200 0
-78.5981 -14.365 0.0144466 0 200 0
-78.5932 -14.3645 0.0146249 0 200 0
-78.5882 -14.3641 0.0148033 0 200 0
-78.5832 -14.3637 0.0149816 0 200 0
-78.5782 -14.3633 0.01516 0 200 0
-78.5732 -14.3628 0.0153383 0 200 0
-78.5683 -14.3624 0.0155167 0 200 0
-78.5633 -14.362 0.015695 0 200 0
-78.5583 -14.3616 0.0158734 0 200 0
-78.5533 -14.3611 0.0160517 0 200 0
-78.5484 -14.3607 0.0162301 0 200 0
-78.5434 -14.3603 0.0164085 0 200 0
-78.5384 -14.3599 0.0165868 0 200 0
-78.5334 -14.3595 0.0167652 0 200 0
-78.5284 -14.359 0.0169435 0 200 0
-78.5235 -14.3586 0.0171219 0 200 0
-78.5185 -14.3582 0.0173002 0 200 0
-78.5135 -14.3578 0.0174786 0 200 0
-78.5085 -14.3573 0.0176569 0 200 0
-80.7058 -13.4457 0 0 200 0
-80.7008 -13.4449 0.000190199 0 200 0
-80.6959 -13.4442 0.000380398 0 200 0
-80.691 -13.4434 0.000570597 0 200 0
-80.686 -13.4427 0.000760796 0 200 0
-80.6811 -13.4419 0.000950995 0 200 0
-80.6761 -13.4411 0.00114119 0 200 0
-80.6712 -13.4404 0.00133139 0 200 0
-80.6663 -13.4396 0.00152159 0 200 0
-80.6613 -13.4389 0.00171179 0 200 0
-80.6564 -13.4381 0.00190199 0 200 0
-80.6515 -13.4373 0.00209219 0 200 0
-80.6465 -13.4366 0.00228239 0 200 0
-80.6416 -13.4358 0.00247259 0 200 0
-80.6366 -13.4351 0.00266279 0 200 0
-80.6317 -13.4343 0.00285299 0 200 0
-80.6268 -13.4335 0.00304319 0 200 0
-80.6218 -13.4328 0.00323338 0 200 0
-80.6169 -13.432 0.00342358 0 200 0
-80.6119 -13.4313 0.00361378 0 200 0
-80.607 -13.4305 0.00380398 0 200 0
-80.6021 -13.4297 0.00399418 0 200 0
-80.5971 -13.429 0.00418438 0 200 0
-80.5922 -13.4282 0.00437458 0 200 0
-80.5873 -13.4274 0.00456478 0 200 0
-80.5823 -13.4267 0.00475498 0 200 0
-80.5774 -13.4259 0.00494518 0 200 0
-80.5724 -13.4252 0.00513538 0 200 0
-80.5675 -13.4244 0.00532557 0 200 0
-80.5626 -13.4236 0.00551577 0 200 0
-80.5576 -13.4229 0.00570597 0 200 0
-80.5527 -13.4221 0.00589617 0 200 0
-80.5477 -13.4214 0.00608637 0 200 0
-80.5428 -13.4206 0.00627657 0 200 0
-80.5379 -13.4198 0.00646677 0 200 0
-80.5329 -13.4191 0.00665697 0 200 0
-80.528 -13.4183 0.00684717 0 200 0
-80.5231 -13.4176 0.00703737 0 200 0
-80.5181 -13.4168 0.00722757 0 200 0
-80.5132 -13.416 0.00741776 0 200 0
-80.5082 -13.4153 0.00760796 0 200 0
-80.5033 -13.4145 0.00779816 0 200 0
-80.4984 -13.4138 0.00798836 0 200 0
-80.4934 -13.413 0.00817856 0 200 0
-80.4885 -13.4122 0.00836876 0 200 0
-80.4836 -13.4115 0.00855896 0 200 0
-80.4786 -13.4107 0.00874916 0 200 0
-80.4737 -13.41 0.00893936 0 200 0
-80.4687 -13.4092 0.00912956 0 200 0
-80.4638 -13.4084 0.00931976 0 200 0
-80.4589 -13.4077 0.00950995 0 200 0
-80.4539 -13.4069 0.00970015 0 200 0
-80.449 -13.4062 0.00989035 0 200 0
-80.444 -13.4054 0.0100806 0 200 0
-80.4391 -13.4046 0.0102708 0 200 0
-80.4342 -13.4039 0.0104609 0 200 0
-80.4292 -13.4031 0.0106511 0 200 0
-80.4243 -13.4024 0.0108413 0 200 0
-80.4194 -13.4016 0.0110315 0 200 0
-80.4144 -13.4008 0.0112217 0 200 0
-80.4095 -13.4001 0.0114119 0 200 0
-80.4045 -13.3993 0.0116021 0 200 0
-80.3996 -13.3986 0.0117923 0 200 0
-80.3947 -13.3978 0.0119825 0 200 0
-80.3897 -13.397 0.0121727 0 200 0
-80.3848 -13.3963 0.0123629 0 200 0
-80.3799 -13.3955 0.0125531 0 200 0
-80.3749 -13.3948 0.0127433 0 200 0
-80.37 -13.394 0.0129335 0 200 0
-80.365 -13.3932 0.0131237 0 200 0
-80.3601 -13.3925 0.0133139 0 200 0
-80.3552 -13.3917 0.0135041 0 200 0
-80.3502 -13.391 0.0136943 0 200 0
-80.3453 -13.3902 0.0138845 0 200 0
-80.3403 -13.3894 0.0140747 0 200 0
-80.3354 -13.3887 0.0142649 0 200 0
-80.3305 -13.3879 0.0144551 0 200 0
-80.3255 -13.3872 0.0146453 0 200 0
-80.3206 -13.3864 0.0148355 0 200 0
-80.3157 -13.3856 0.0150257 0 200 0
-80.3107 -13.3849 0.0152159 0 200 0
-80.3058 -13.3841 0.0154061 0 200 0
-80.3008 -13.3834 0.0155963 0 200 0
-80.2959 -13.3826 0.0157865 0 200 0
-80.291 -13.3818 0.0159767 0 200 0
-80.286 -13.3811 0.0161669 0 200 0
-80.2811 -13.3803 0.0163571 0 200 0
-80.2761 -13.3796 0.0165473 0 200 0
-80.2712 -13.3788 0.0167375 0 200 0
-80.2663 -13.378 0.0169277 0 200 0
-80.2613 -13.3773 0.0171179 0 200 0
-80.2564 -13.3765 0.0173081 0 200 0
-80.2515 -13.3757 0.0174983 0 200 0
-80.2465 -13.375 0.0176885 0 200 0
-80.2416 -13.3742 0.0178787 0 200 0
-80.2366 -13.3735 0.0180689 0 200 0
-80.2317 -13.3727 0.0182591 0 200 0
-80.2268 -13.3719 0.0184493 0 200 0
-80.2218 -13.3712 0.0186395 0 200 0
-80.2169 -13.3704 0.0188297 0 200 0
-82.1036 -12.4035 0 0 200 0
-82.0986 -12.4035 0.000166073 0 200 0
-82.0936 -12.4035 0.000332145 0 200 0
-82.0886 -12.4036 0.000498218 0 200 0
-82.0836 -12.4036 0.000664291 0 200 0
-82.0787 -12.4036 0.000830363 0 200 0
-82.0737 -12.4036 0.000996436 0 200 0
-82.0687 -12.4036 0.00116251 0 200 0
-82.0637 -12.4036 0.00132858 0 200 0
-82.0587 -12.4036 0.00149465 0 200 0
-82.0537 -12.4036 0.00166073 0 200 0
-82.0487 -12.4036 0.0018268 0 200 0
-82.0437 -12.4036 0.00199287 0 200 0
-82.0387 -12.4037 0.00215894 0 200 0
-82.0337 -12.4037 0.00232502 0 200 0
-82.0287 -12.4037 0.00249109 0 200 0
-82.0237 -12.4037 0.00265716 0 200 0
-82.0187 -12.4037 0.00282324 0 200 0
-82.0137 -12.4037 0.00298931 0 200 0
-82.0087 -12.4037 0.00315538 0 200 0
-82.0037 -12.4037 0.00332145 0 200 0
-81.9987 -12.4037 0.00348753 0 200 0
-81.9937 -12.4037 0.0036536 0 200 0
-81.9887 -12.4037 0.00381967 0 200 0
-81.9837 -12.4038 0.00398574 0 200 0
-81.9787 -12.4038 0.00415182 0 200 0
-81.9737 -12.4038 0.00431789 0 200 0
-81.9687 -12.4038 0.00448396 0 200 0
-81.9637 -12.4038 0.00465003 0 200 0
-81.9587 -12.4038 0.00481611 0 200 0
-81.9537 -12.4038 0.00498218 0 200 0
-81.9487 -12.4038 0.00514825 0 200 0
-81.9437 -12.4038 0.00531432 0 200 0
-81.9387 -12.4038 0.0054804 0 200 0
-81.9337 -12.4038 0.00564647 0 200 0
-81.9287 -12.4039 0.00581254 0 200 0
-81.9237 -12.4039 0.00597862 0 200 0
-81.9187 -12.4039 0.00614469 0 200 0
-81.9137 -12.4039 0.00631076 0 200 0
-81.9087 -12.4039 0.00647683 0 200 0
-81.9037 -12.4039 0.00664291 0 200 0
-81.8988 -12.4039 0.00680898 0 200 0
-81.8938 -12.4039 0.00697505 0 200 0
-81.8888 -12.4039 0.00714112 0 200 0
