ply
format ascii 1.0
element vertex 1335
property float x
property float y
property float z
property uchar red
property uchar green
property uchar blue
element face 0
property list uchar int vertex_indices
end_header
-17.8061 -54.932 0.0470832 0 200 0
-18.1936 -55.834 0 0 200 0
-18.1986 -55.8343 0.000371561 0 200 0
-18.2036 -55.8346 0.000743122 0 200 0
-18.2085 -55.8349 0.00111468 0 200 0
-18.2135 -55.8352 0.00148624 0 200 0
-18.2185 -55.8355 0.00185781 0 200 0
-18.2235 -55.8358 0.00222937 0 200 0
-18.2285 -55.8361 0.00260093 0 200 0
-18.2334 -55.8364 0.00297249 0 200 0
-18.2384 -55.8367 0.00334405 0 200 0
-18.2434 -55.837 0.00371561 0 200 0
-18.2484 -55.8372 0.00408717 0 200 0
-18.2533 -55.8375 0.00445873 0 200 0
-18.2583 -55.8378 0.00483029 0 200 0
-18.2633 -55.8381 0.00520185 0 200 0
-18.2683 -55.8384 0.00557342 0 200 0
-18.2733 -55.8387 0.00594498 0 200 0
-18.2782 -55.839 0.00631654 0 200 0
-18.2832 -55.8393 0.0066881 0 200 0
-18.2882 -55.8396 0.00705966 0 200 0
-18.2932 -55.8399 0.00743122 0 200 0
-18.2981 -55.8402 0.00780278 0 200 0
-18.3031 -55.8405 0.00817434 0 200 0
-18.3081 -55.8408 0.0085459 0 200 0
-18.3131 -55.8411 0.00891746 0 200 0
-18.3181 -55.8413 0.00928903 0 200 0
-18.323 -55.8416 0.00966059 0 200 0
-18.328 -55.8419 0.0100321 0 200 0
-18.333 -55.8422 0.0104037 0 200 0
-18.338 -55.8425 0.0107753 0 200 0
-18.3429 -55.8428 0.0111468 0 200 0
-18.3479 -55.8431 0.0115184 0 200 0
-18.3529 -55.8434 0.01189 0 200 0
-18.3579 -55.8437 0.0122615 0 200 0
-18.3629 -55.844 0.0126331 0 200 0
-18.3678 -55.8443 0.0130046 0 200 0
-18.3728 -55.8446 0.0133762 0 200 0
-18.3778 -55.8449 0.0137478 0 200 0
-18.3828 -55.8451 0.0141193 0 200 0
-18.3877 -55.8454 0.0144909 0 200 0
-18.3927 -55.8457 0.0148624 0 200 0
-18.3977 -55.846 0.015234 0 200 0
-18.4027 -55.8463 0.0156056 0 200 0
-18.4077 -55.8466 0.0159771 0 200 0
-18.4126 -55.8469 0.0163487 0 200 0
-18.4176 -55.8472 0.0167202 0 200 0
-18.4226 -55.8475 0.0170918 0 200 0
-18.4276 -55.8478 0.0174634 0 200 0
-18.4325 -55.8481 0.0178349 0 200 0
-18.4375 -55.8484 0.0182065 0 200 0
-18.4425 -55.8487 0.0185781 0 200 0
-18.4475 -55.8489 0.0189496 0 200 0
-18.4524 -55.8492 0.0193212 0 200 0
-18.4574 -55.8495 0.0196927 0 200 0
-18.4624 -55.8498 0.0200643 0 200 0
-18.4674 -55.8501 0.0204359 0 200 0
-18.4724 -55.8504 0.0208074 0 200 0
-18.4773 -55.8507 0.021179 0 200 0
-18.4823 -55.851 0.0215505 0 200 0
-18.4873 -55.8513 0.0219221 0 200 0
-18.4923 -55.8516 0.0222937 0 200 0
-18.4972 -55.8519 0.0226652 0 200 0
-18.5022 -55.8522 0.0230368 0 200 0
-18.5072 -55.8525 0.0234083 0 200 0
-18.5122 -55.8527 0.0237799 0 200 0
-18.5172 -55.853 0.0241515 0 200 0
-18.5221 -55.8533 0.024523 0 200 0
-18.5271 -55.8536 0.0248946 0 200 0
-18.5321 -55.8539 0.0252662 0 200 0
-18.5371 -55.8542 0.0256377 0 200 0
-18.542 -55.8545 0.0260093 0 200 0
-18.547 -55.8548 0.0263808 0 200 0
-18.552 -55.8551 0.0267524 0 200 0
-18.557 -55.8554 0.027124 0 200 0
-18.562 -55.8557 0.0274955 0 200 0
-18.5669 -55.856 0.0278671 0 200 0
-18.5719 -55.8563 0.0282386 0 200 0
-18.5769 -55.8566 0.0286102 0 200 0
-18.5819 -55.8568 0.0289818 0 200 0
-18.5868 -55.8571 0.0293533 0 200 0
-18.5918 -55.8574 0.0297249 0 200 0
-18.5968 -55.8577 0.0300964 0 200 0
-18.6018 -55.858 0.030468 0 200 0
-18.6068 -55.8583 0.0308396 0 200 0
-18.6117 -55.8586 0.0312111 0 200 0
-18.6167 -55.8589 0.0315827 0 200 0
-18.6217 -55.8592 0.0319543 0 200 0
-18.6267 -55.8595 0.0323258 0 200 0
-18.6316 -55.8598 0.0326974 0 200 0
-18.6366 -55.8601 0.0330689 0 200 0
-18.6416 -55.8604 0.0334405 0 200 0
-18.6466 -55.8606 0.0338121 0 200 0
-18.6516 -55.8609 0.0341836 0 200 0
-18.6565 -55.8612 0.0345552 0 200 0
-18.6615 -55.8615 0.0349267 0 200 0
-18.6665 -55.8618 0.0352983 0 200 0
-18.6715 -55.8621 0.0356699 0 200 0
-18.6764 -55.8624 0.0360414 0 200 0
-18.6814 -55.8627 0.036413 0 200 0
-18.6864 -55.863 0.0367845 0 200 0
-19.3563 -56.6358 0 0 200 0
-19.3612 -56.636 0.00054302 0 200 0
-19.3662 -56.6362 0.00108604 0 200 0
-19.3712 -56.6365 0.00162906 0 200 0
-19.3761 -56.6367 0.00217208 0 200 0
-19.3811 -56.6369 0.0027151 0 200 0
-19.3861 -56.6371 0.00325812 0 200 0
-19.391 -56.6373 0.00380114 0 200 0
-19.396 -56.6375 0.00434416 0 200 0
-19.401 -56.6377 0.00488718 0 200 0
-19.4059 -56.6379 0.0054302 0 200 0
-19.4109 -56.6381 0.00597322 0 200 0
-19.4159 -56.6383 0.00651624 0 200 0
-19.4208 -56.6385 0.00705926 0 200 0
-19.4258 -56.6387 0.00760228 0 200 0
-19.4308 -56.6389 0.0081453 0 200 0
-19.4357 -56.6391 0.00868832 0 200 0
-19.4407 -56.6393 0.00923134 0 200 0
-19.4457 -56.6395 0.00977436 0 200 0
-19.4506 -56.6397 0.0103174 0 200 0
-19.4556 -56.6399 0.0108604 0 200 0
-19.4606 -56.6401 0.0114034 0 200 0
-19.4655 -56.6403 0.0119464 0 200 0
-19.4705 -56.6405 0.0124895 0 200 0
-19.4755 -56.6407 0.0130325 0 200 0
-19.4804 -56.641 0.0135755 0 200 0
-19.4854 -56.6412 0.0141185 0 200 0
-19.4904 -56.6414 0.0146615 0 200 0
-19.4953 -56.6416 0.0152046 0 200 0
-19.5003 -56.6418 0.0157476 0 200 0
-19.5053 -56.642 0.0162906 0 200 0
-19.5102 -56.6422 0.0168336 0 200 0
-19.5152 -56.6424 0.0173766 0 200 0
-19.5202 -56.6426 0.0179197 0 200 0
-19.5251 -56.6428 0.0184627 0 200 0
-19.5301 -56.643 0.0190057 0 200 0
-19.5351 -56.6432 0.0195487 0 200 0
-19.54 -56.6434 0.0200917 0 200 0
-19.545 -56.6436 0.0206348 0 200 0
-19.55 -56.6438 0.0211778 0 200 0
-19.5549 -56.644 0.0217208 0 200 0
-19.5599 -56.6442 0.0222638 0 200 0
-19.5649 -56.6444 0.0228068 0 200 0
-19.5698 -56.6446 0.0233499 0 200 0
-19.5748 -56.6448 0.0238929 0 200 0
-19.5798 -56.645 0.0244359 0 200 0
-19.5847 -56.6452 0.0249789 0 200 0
-19.5897 -56.6454 0.025522 0 200 0
-19.5947 -56.6457 0.026065 0 200 0
-19.5996 -56.6459 0.026608 0 200 0
-19.6046 -56.6461 0.027151 0 200 0
-19.6096 -56.6463 0.027694 0 200 0
-19.6145 -56.6465 0.0282371 0 200 0
-19.6195 -56.6467 0.0287801 0 200 0
-19.6245 -56.6469 0.0293231 0 200 0
-19.6294 -56.6471 0.0298661 0 200 0
-19.6344 -56.6473 0.0304091 0 200 0
-19.6394 -56.6475 0.0309522 0 200 0
-19.6443 -56.6477 0.0314952 0 200 0
-19.6493 -56.6479 0.0320382 0 200 0
-19.6543 -56.6481 0.0325812 0 200 0
-19.6592 -56.6483 0.0331242 0 200 0
-19.6642 -56.6485 0.0336673 0 200 0
-19.6692 -56.6487 0.0342103 0 200 0
-19.6741 -56.6489 0.0347533 0 200 0
-19.6791 -56.6491 0.0352963 0 200 0
-19.6841 -56.6493 0.0358393 0 200 0
-19.689 -56.6495 0.0363824 0 200 0
-19.694 -56.6497 0.0369254 0 200 0
-19.6989 -56.6499 0.0374684 0 200 0
-19.7039 -56.6501 0.0380114 0 200 0
-19.7089 -56.6504 0.0385544 0 200 0
-19.7138 -56.6506 0.0390975 0 200 0
-19.7188 -56.6508 0.0396405 0 200 0
-19.7238 -56.651 0.0401835 0 200 0
-19.7287 -56.6512 0.0407265 0 200 0
-19.7337 -56.6514 0.0412695 0 200 0
-19.7387 -56.6516 0.0418126 0 200 0
-19.7436 -56.6518 0.0423556 0 200 0
-19.7486 -56.652 0.0428986 0 200 0
-19.7536 -56.6522 0.0434416 0 200 0
-19.7585 -56.6524 0.0439846 0 200 0
-19.7635 -56.6526 0.0445277 0 200 0
-19.7685 -56.6528 0.0450707 0 200 0
-19.7734 -56.653 0.0456137 0 200 0
-19.7784 -56.6532 0.0461567 0 200 0
-19.7834 -56.6534 0.0466997 0 200 0
-19.7883 -56.6536 0.0472428 0 200 0
-19.7933 -56.6538 0.0477858 0 200 0
-19.7983 -56.654 0.0483288 0 200 0
-19.8032 -56.6542 0.0488718 0 200 0
-19.8082 -56.6544 0.0494148 0 200 0
-19.8132 -56.6546 0.0499579 0 200 0
-19.8181 -56.6548 0.0505009 0 200 0
-19.8231 -56.6551 0.0510439 0 200 0
-19.8281 -56.6553 0.0515869 0 200 0
-19.833 -56.6555 0.0521299 0 200 0
-19.838 -56.6557 0.052673 0 200 0
-19.843 -56.6559 0.053216 0 200 0
-19.8479 -56.6561 0.053759 0 200 0
-20.8503 -57.4053 0 0 200 0
-20.8553 -57.4048 0.00032588 0 200 0
-20.8603 -57.4043 0.00065176 0 200 0
-20.8652 -57.4039 0.00097764 0 200 0
-20.8702 -57.4034 0.00130352 0 200 0
-20.8752 -57.403 0.0016294 0 200 0
-20.8801 -57.4025 0.00195528 0 200 0
-20.8851 -57.402 0.00228116 0 200 0
-20.8901 -57.4016 0.00260704 0 200 0
-20.8951 -57.4011 0.00293292 0 200 0
-20.9 -57.4007 0.0032588 0 200 0
-20.905 -57.4002 0.00358468 0 200 0
-20.91 -57.3997 0.00391056 0 200 0
-20.9149 -57.3993 0.00423644 0 200 0
-20.9199 -57.3988 0.00456232 0 200 0
-20.9249 -57.3984 0.0048882 0 200 0
-20.9298 -57.3979 0.00521408 0 200 0
-20.9348 -57.3974 0.00553996 0 200 0
-20.9398 -57.397 0.00586584 0 200 0
-20.9447 -57.3965 0.00619172 0 200 0
-20.9497 -57.3961 0.0065176 0 200 0
-20.9547 -57.3956 0.00684348 0 200 0
-20.9596 -57.3951 0.00716936 0 200 0
-20.9646 -57.3947 0.00749524 0 200 0
-20.9696 -57.3942 0.00782112 0 200 0
-20.9745 -57.3938 0.008147 0 200 0
-20.9795 -57.3933 0.00847288 0 200 0
-20.9845 -57.3928 0.00879876 0 200 0
-20.9894 -57.3924 0.00912464 0 200 0
-20.9944 -57.3919 0.00945052 0 200 0
-20.9994 -57.3915 0.0097764 0 200 0
-21.0043 -57.391 0.0101023 0 200 0
-21.0093 -57.3905 0.0104282 0 200 0
-21.0143 -57.3901 0.010754 0 200 0
-21.0193 -57.3896 0.0110799 0 200 0
-21.0242 -57.3892 0.0114058 0 200 0
-21.0292 -57.3887 0.0117317 0 200 0
-21.0342 -57.3882 0.0120576 0 200 0
-21.0391 -57.3878 0.0123834 0 200 0
-21.0441 -57.3873 0.0127093 0 200 0
-21.0491 -57.3869 0.0130352 0 200 0
-21.054 -57.3864 0.0133611 0 200 0
-21.059 -57.3859 0.013687 0 200 0
-21.064 -57.3855 0.0140128 0 200 0
-21.0689 -57.385 0.0143387 0 200 0
-21.0739 -57.3846 0.0146646 0 200 0
-21.0789 -57.3841 0.0149905 0 200 0
-21.0838 -57.3836 0.0153164 0 200 0
-21.0888 -57.3832 0.0156422 0 200 0
-21.0938 -57.3827 0.0159681 0 200 0
-21.0987 -57.3823 0.016294 0 200 0
-21.1037 -57.3818 0.0166199 0 200 0
-21.1087 -57.3813 0.0169458 0 200 0
-21.1136 -57.3809 0.0172716 0 200 0
-21.1186 -57.3804 0.0175975 0 200 0
-21.1236 -57.38 0.0179234 0 200 0
-21.1286 -57.3795 0.0182493 0 200 0
-21.1335 -57.379 0.0185752 0 200 0
-21.1385 -57.3786 0.018901 0 200 0
-21.1435 -57.3781 0.0192269 0 200 0
-21.1484 -57.3777 0.0195528 0 200 0
-21.1534 -57.3772 0.0198787 0 200 0
-21.1584 -57.3767 0.0202046 0 200 0
-21.1633 -57.3763 0.0205304 0 200 0
-21.1683 -57.3758 0.0208563 0 200 0
-21.1733 -57.3754 0.0211822 0 200 0
-21.1782 -57.3749 0.0215081 0 200 0
-21.1832 -57.3744 0.021834 0 200 0
-21.1882 -57.374 0.0221599 0 200 0
-21.1931 -57.3735 0.0224857 0 200 0
-21.1981 -57.3731 0.0228116 0 200 0
-21.2031 -57.3726 0.0231375 0 200 0
-21.208 -57.3721 0.0234634 0 200 0
-21.213 -57.3717 0.0237893 0 200 0
-21.218 -57.3712 0.0241151 0 200 0
-21.2229 -57.3708 0.024441 0 200 0
-21.2279 -57.3703 0.0247669 0 200 0
-21.2329 -57.3698 0.0250928 0 200 0
-21.2379 -57.3694 0.0254187 0 200 0
-21.2428 -57.3689 0.0257445 0 200 0
-21.2478 -57.3685 0.0260704 0 200 0
-21.2528 -57.368 0.0263963 0 200 0
-21.2577 -57.3675 0.0267222 0 200 0
-21.2627 -57.3671 0.0270481 0 200 0
-21.2677 -57.3666 0.0273739 0 200 0
-21.2726 -57.3662 0.0276998 0 200 0
-21.2776 -57.3657 0.0280257 0 200 0
-21.2826 -57.3652 0.0283516 0 200 0
-21.2875 -57.3648 0.0286775 0 200 0
-21.2925 -57.3643 0.0290033 0 200 0
-21.2975 -57.3639 0.0293292 0 200 0
-21.3024 -57.3634 0.0296551 0 200 0
-21.3074 -57.3629 0.029981 0 200 0
-21.3124 -57.3625 0.0303069 0 200 0
-21.3173 -57.362 0.0306327 0 200 0
-21.3223 -57.3616 0.0309586 0 200 0
-21.3273 -57.3611 0.0312845 0 200 0
-21.3322 -57.3606 0.0316104 0 200 0
-21.3372 -57.3602 0.0319363 0 200 0
-21.3422 -57.3597 0.0322621 0 200 0
-22.6119 -58.2315 0 0 200 0
-22.6169 -58.2313 0.000576128 0 200 0
-22.6218 -58.231 0.00115226 0 200 0
-22.6268 -58.2308 0.00172839 0 200 0
-22.6317 -58.2305 0.00230451 0 200 0
-22.6367 -58.2302 0.00288064 0 200 0
-22.6417 -58.23 0.00345677 0 200 0
-22.6466 -58.2297 0.0040329 0 200 0
-22.6516 -58.2295 0.00460903 0 200 0
-22.6565 -58.2292 0.00518516 0 200 0
-22.6615 -58.229 0.00576128 0 200 0
-22.6665 -58.2287 0.00633741 0 200 0
-22.6714 -58.2285 0.00691354 0 200 0
-22.6764 -58.2282 0.00748967 0 200 0
-22.6813 -58.228 0.0080658 0 200 0
-22.6863 -58.2277 0.00864193 0 200 0
-22.6913 -58.2274 0.00921805 0 200 0
-22.6962 -58.2272 0.00979418 0 200 0
-22.7012 -58.2269 0.0103703 0 200 0
-22.7061 -58.2267 0.0109464 0 200 0
-22.7111 -58.2264 0.0115226 0 200 0
-22.7161 -58.2262 0.0120987 0 200 0
-22.721 -58.2259 0.0126748 0 200 0
-22.726 -58.2257 0.013251 0 200 0
-22.7309 -58.2254 0.0138271 0 200 0
-22.7359 -58.2252 0.0144032 0 200 0
-22.7409 -58.2249 0.0149793 0 200 0
-22.7458 -58.2246 0.0155555 0 200 0
-22.7508 -58.2244 0.0161316 0 200 0
-22.7558 -58.2241 0.0167077 0 200 0
-22.7607 -58.2239 0.0172839 0 200 0
-22.7657 -58.2236 0.01786 0 200 0
-22.7706 -58.2234 0.0184361 0 200 0
-22.7756 -58.2231 0.0190122 0 200 0
-22.7806 -58.2229 0.0195884 0 200 0
-22.7855 -58.2226 0.0201645 0 200 0
-22.7905 -58.2224 0.0207406 0 200 0
-22.7954 -58.2221 0.0213168 0 200 0
-22.8004 -58.2218 0.0218929 0 200 0
-22.8054 -58.2216 0.022469 0 200 0
-22.8103 -58.2213 0.0230451 0 200 0
-22.8153 -58.2211 0.0236213 0 200 0
-22.8202 -58.2208 0.0241974 0 200 0
-22.8252 -58.2206 0.0247735 0 200 0
-22.8302 -58.2203 0.0253497 0 200 0
-22.8351 -58.2201 0.0259258 0 200 0
-22.8401 -58.2198 0.0265019 0 200 0
-22.845 -58.2196 0.027078 0 200 0
-22.85 -58.2193 0.0276542 0 200 0
-22.855 -58.219 0.0282303 0 200 0
-22.8599 -58.2188 0.0288064 0 200 0
-22.8649 -58.2185 0.0293825 0 200 0
-22.8698 -58.2183 0.0299587 0 200 0
-22.8748 -58.218 0.0305348 0 200 0
-22.8798 -58.2178 0.0311109 0 200 0
-22.8847 -58.2175 0.0316871 0 200 0
-22.8897 -58.2173 0.0322632 0 200 0
-22.8946 -58.217 0.0328393 0 200 0
-22.8996 -58.2168 0.0334154 0 200 0
-22.9046 -58.2165 0.0339916 0 200 0
-22.9095 -58.2162 0.0345677 0 200 0
-22.9145 -58.216 0.0351438 0 200 0
-22.9194 -58.2157 0.03572 0 200 0
-22.9244 -58.2155 0.0362961 0 200 0
-22.9294 -58.2152 0.0368722 0 200 0
-22.9343 -58.215 0.0374483 0 200 0
-22.9393 -58.2147 0.0380245 0 200 0
-22.9442 -58.2145 0.0386006 0 200 0
-22.9492 -58.2142 0.0391767 0 200 0
-22.9542 -58.214 0.0397529 0 200 0
-22.9591 -58.2137 0.040329 0 200 0
-22.9641 -58.2134 0.0409051 0 200 0
-22.969 -58.2132 0.0414812 0 200 0
-22.974 -58.2129 0.0420574 0 200 0
-22.979 -58.2127 0.0426335 0 200 0
-22.9839 -58.2124 0.0432096 0 200 0
-22.9889 -58.2122 0.0437858 0 200 0
-22.9938 -58.2119 0.0443619 0 200 0
-22.9988 -58.2117 0.044938 0 200 0
-23.0038 -58.2114 0.0455141 0 200 0
-23.0087 -58.2112 0.0460903 0 200 0
-23.0137 -58.2109 0.0466664 0 200 0
-23.0186 -58.2106 0.0472425 0 200 0
-23.0236 -58.2104 0.0478187 0 200 0
-23.0286 -58.2101 0.0483948 0 200 0
-23.0335 -58.2099 0.0489709 0 200 0
-23.0385 -58.2096 0.049547 0 200 0
-23.0434 -58.2094 0.0501232 0 200 0
-23.0484 -58.2091 0.0506993 0 200 0
-23.0534 -58.2089 0.0512754 0 200 0
-23.0583 -58.2086 0.0518516 0 200 0
-23.0633 -58.2084 0.0524277 0 200 0
-23.0682 -58.2081 0.0530038 0 200 0
-23.0732 -58.2078 0.0535799 0 200 0
-23.0782 -58.2076 0.0541561 0 200 0
-23.0831 -58.2073 0.0547322 0 200 0
-23.0881 -58.2071 0.0553083 0 200 0
-23.093 -58.2068 0.0558845 0 200 0
-23.098 -58.2066 0.0564606 0 200 0
-23.103 -58.2063 0.0570367 0 200 0
-24.3875 -59.0977 0 0 200 0
-24.3925 -59.0977 0.00059309 0 200 0
-24.3975 -59.0978 0.00118618 0 200 0
-24.4024 -59.0978 0.00177927 0 200 0
-24.4074 -59.0978 0.00237236 0 200 0
-24.4124 -59.0979 0.00296545 0 200 0
-24.4173 -59.0979 0.00355854 0 200 0
-24.4223 -59.098 0.00415163 0 200 0
-24.4273 -59.098 0.00474472 0 200 0
-24.4322 -59.098 0.00533781 0 200 0
-24.4372 -59.0981 0.0059309 0 200 0
-24.4422 -59.0981 0.00652399 0 200 0
-24.4471 -59.0981 0.00711708 0 200 0
-24.4521 -59.0982 0.00771017 0 200 0
-24.4571 -59.0982 0.00830325 0 200 0
-24.462 -59.0983 0.00889634 0 200 0
-24.467 -59.0983 0.00948943 0 200 0
-24.4719 -59.0983 0.0100825 0 200 0
-24.4769 -59.0984 0.0106756 0 200 0
-24.4819 -59.0984 0.0112687 0 200 0
-24.4868 -59.0984 0.0118618 0 200 0
-24.4918 -59.0985 0.0124549 0 200 0
-24.4968 -59.0985 0.013048 0 200 0
-24.5017 -59.0986 0.0136411 0 200 0
-24.5067 -59.0986 0.0142342 0 200 0
-24.5117 -59.0986 0.0148272 0 200 0
-24.5166 -59.0987 0.0154203 0 200 0
-24.5216 -59.0987 0.0160134 0 200 0
-24.5266 -59.0987 0.0166065 0 200 0
-24.5315 -59.0988 0.0171996 0 200 0
-24.5365 -59.0988 0.0177927 0 200 0
-24.5415 -59.0989 0.0183858 0 200 0
-24.5464 -59.0989 0.0189789 0 200 0
-24.5514 -59.0989 0.019572 0 200 0
-24.5563 -59.099 0.020165 0 200 0
-24.5613 -59.099 0.0207581 0 200 0
-24.5663 -59.099 0.0213512 0 200 0
-24.5712 -59.0991 0.0219443 0 200 0
-24.5762 -59.0991 0.0225374 0 200 0
-24.5812 -59.0992 0.0231305 0 200 0
-24.5861 -59.0992 0.0237236 0 200 0
-24.5911 -59.0992 0.0243167 0 200 0
-24.5961 -59.0993 0.0249098 0 200 0
-24.601 -59.0993 0.0255029 0 200 0
-24.606 -59.0993 0.0260959 0 200 0
-24.611 -59.0994 0.026689 0 200 0
-24.6159 -59.0994 0.0272821 0 200 0
-24.6209 -59.0995 0.0278752 0 200 0
-24.6258 -59.0995 0.0284683 0 200 0
-24.6308 -59.0995 0.0290614 0 200 0
-24.6358 -59.0996 0.0296545 0 200 0
-24.6407 -59.0996 0.0302476 0 200 0
-24.6457 -59.0996 0.0308407 0 200 0
-24.6507 -59.0997 0.0314337 0 200 0
-24.6556 -59.0997 0.0320268 0 200 0
-24.6606 -59.0998 0.0326199 0 200 0
-24.6656 -59.0998 0.033213 0 200 0
-24.6705 -59.0998 0.0338061 0 200 0
-24.6755 -59.0999 0.0343992 0 200 0
-24.6805 -59.0999 0.0349923 0 200 0
-24.6854 -59.0999 0.0355854 0 200 0
-24.6904 -59.1 0.0361785 0 200 0
-24.6954 -59.1 0.0367716 0 200 0
-24.7003 -59.1001 0.0373646 0 200 0
-24.7053 -59.1001 0.0379577 0 200 0
-24.7102 -59.1001 0.0385508 0 200 0
-24.7152 -59.1002 0.0391439 0 200 0
-24.7202 -59.1002 0.039737 0 200 0
-24.7251 -59.1002 0.0403301 0 200 0
-24.7301 -59.1003 0.0409232 0 200 0
-24.7351 -59.1003 0.0415163 0 200 0
-24.74 -59.1003 0.0421094 0 200 0
-24.745 -59.1004 0.0427025 0 200 0
-24.75 -59.1004 0.0432955 0 200 0
-24.7549 -59.1005 0.0438886 0 200 0
-24.7599 -59.1005 0.0444817 0 200 0
-24.7649 -59.1005 0.0450748 0 200 0
-24.7698 -59.1006 0.0456679 0 200 0
-24.7748 -59.1006 0.046261 0 200 0
-24.7797 -59.1007 0.0468541 0 200 0
-24.7847 -59.1007 0.0474472 0 200 0
-24.7897 -59.1007 0.0480403 0 200 0
-24.7946 -59.1008 0.0486333 0 200 0
-24.7996 -59.1008 0.0492264 0 200 0
-24.8046 -59.1008 0.0498195 0 200 0
-24.8095 -59.1009 0.0504126 0 200 0
-24.8145 -59.1009 0.0510057 0 200 0
-24.8195 -59.1009 0.0515988 0 200 0
-24.8244 -59.101 0.0521919 0 200 0
-24.8294 -59.101 0.052785 0 200 0
-24.8344 -59.1011 0.0533781 0 200 0
-24.8393 -59.1011 0.0539712 0 200 0
-24.8443 -59.1011 0.0545642 0 200 0
-24.8493 -59.1012 0.0551573 0 200 0
-24.8542 -59.1012 0.0557504 0 200 0
-24.8592 -59.1012 0.0563435 0 200 0
-24.8641 -59.1013 0.0569366 0 200 0
-24.8691 -59.1013 0.0575297 0 200 0
-24.8741 -59.1014 0.0581228 0 200 0
-24.879 -59.1014 0.0587159 0 200 0
-26.0551 -59.6799 0 0 200 0
-26.0596 -59.6781 0.000863595 0 200 0
-26.0642 -59.6762 0.00172719 0 200 0
-26.0687 -59.6743 0.00259079 0 200 0
-26.0733 -59.6725 0.00345438 0 200 0
-26.0779 -59.6706 0.00431798 0 200 0
-26.0824 -59.6687 0.00518157 0 200 0
-26.087 -59.6668 0.00604517 0 200 0
-26.0915 -59.665 0.00690876 0 200 0
-26.0961 -59.6631 0.00777236 0 200 0
-26.1006 -59.6612 0.00863595 0 200 0
-26.1052 -59.6594 0.00949955 0 200 0
-26.1097 -59.6575 0.0103631 0 200 0
-26.1143 -59.6556 0.0112267 0 200 0
-26.1189 -59.6538 0.0120903 0 200 0
-26.1234 -59.6519 0.0129539 0 200 0
-26.128 -59.65 0.0138175 0 200 0
-26.1325 -59.6481 0.0146811 0 200 0
-26.1371 -59.6463 0.0155447 0 200 0
-26.1416 -59.6444 0.0164083 0 200 0
-26.1462 -59.6425 0.0172719 0 200 0
-26.1508 -59.6407 0.0181355 0 200 0
-26.1553 -59.6388 0.0189991 0 200 0
-26.1599 -59.6369 0.0198627 0 200 0
-26.1644 -59.6351 0.0207263 0 200 0
-26.169 -59.6332 0.0215899 0 200 0
-26.1735 -59.6313 0.0224535 0 200 0
-26.1781 -59.6295 0.0233171 0 200 0
-26.1826 -59.6276 0.0241807 0 200 0
-26.1872 -59.6257 0.0250443 0 200 0
-26.1918 -59.6238 0.0259079 0 200 0
-26.1963 -59.622 0.0267714 0 200 0
-26.2009 -59.6201 0.027635 0 200 0
-26.2054 -59.6182 0.0284986 0 200 0
-26.21 -59.6164 0.0293622 0 200 0
-26.2145 -59.6145 0.0302258 0 200 0
-26.2191 -59.6126 0.0310894 0 200 0
-26.2236 -59.6108 0.031953 0 200 0
-26.2282 -59.6089 0.0328166 0 200 0
-26.2328 -59.607 0.0336802 0 200 0
-26.2373 -59.6051 0.0345438 0 200 0
-26.2419 -59.6033 0.0354074 0 200 0
-26.2464 -59.6014 0.036271 0 200 0
-26.251 -59.5995 0.0371346 0 200 0
-26.2555 -59.5977 0.0379982 0 200 0
-26.2601 -59.5958 0.0388618 0 200 0
-26.2647 -59.5939 0.0397254 0 200 0
-26.2692 -59.5921 0.040589 0 200 0
-26.2738 -59.5902 0.0414526 0 200 0
-26.2783 -59.5883 0.0423162 0 200 0
-26.2829 -59.5864 0.0431798 0 200 0
-26.2874 -59.5846 0.0440434 0 200 0
-26.292 -59.5827 0.0449069 0 200 0
-26.2965 -59.5808 0.0457705 0 200 0
-26.3011 -59.579 0.0466341 0 200 0
-26.3057 -59.5771 0.0474977 0 200 0
-26.3102 -59.5752 0.0483613 0 200 0
-26.3148 -59.5734 0.0492249 0 200 0
-26.3193 -59.5715 0.0500885 0 200 0
-26.3239 -59.5696 0.0509521 0 200 0
-26.3284 -59.5677 0.0518157 0 200 0
-26.333 -59.5659 0.0526793 0 200 0
-26.3376 -59.564 0.0535429 0 200 0
-26.3421 -59.5621 0.0544065 0 200 0
-26.3467 -59.5603 0.0552701 0 200 0
-26.3512 -59.5584 0.0561337 0 200 0
-26.3558 -59.5565 0.0569973 0 200 0
-26.3603 -59.5547 0.0578609 0 200 0
-26.3649 -59.5528 0.0587245 0 200 0
-26.3694 -59.5509 0.0595881 0 200 0
-26.374 -59.549 0.0604517 0 200 0
-26.3786 -59.5472 0.0613153 0 200 0
-26.3831 -59.5453 0.0621788 0 200 0
-26.3877 -59.5434 0.0630424 0 200 0
-26.3922 -59.5416 0.063906 0 200 0
-26.3968 -59.5397 0.0647696 0 200 0
-26.4013 -59.5378 0.0656332 0 200 0
-26.4059 -59.536 0.0664968 0 200 0
-26.4104 -59.5341 0.0673604 0 200 0
-26.415 -59.5322 0.068224 0 200 0
-26.4196 -59.5303 0.0690876 0 200 0
-26.4241 -59.5285 0.0699512 0 200 0
-26.4287 -59.5266 0.0708148 0 200 0
-26.4332 -59.5247 0.0716784 0 200 0
-26.4378 -59.5229 0.072542 0 200 0
-26.4423 -59.521 0.0734056 0 200 0
-26.4469 -59.5191 0.0742692 0 200 0
-26.4515 -59.5173 0.0751328 0 200 0
-26.456 -59.5154 0.0759964 0 200 0
-26.4606 -59.5135 0.07686 0 200 0
-26.4651 -59.5116 0.0777236 0 200 0
-26.4697 -59.5098 0.0785872 0 200 0
-26.4742 -59.5079 0.0794507 0 200 0
-26.4788 -59.506 0.0803143 0 200 0
-26.4833 -59.5042 0.0811779 0 200 0
-26.4879 -59.5023 0.0820415 0 200 0
-26.4925 -59.5004 0.0829051 0 200 0
-26.497 -59.4986 0.0837687 0 200 0
-26.5016 -59.4967 0.0846323 0 200 0
-26.5061 -59.4948 0.0854959 0 200 0
-27.7319 -60.349 0 0 200 0
-27.7347 -60.3449 0.000770497 0 200 0
-27.7374 -60.3408 0.00154099 0 200 0
-27.7402 -60.3367 0.00231149 0 200 0
-27.7429 -60.3326 0.00308199 0 200 0
-27.7456 -60.3285 0.00385249 0 200 0
-27.7484 -60.3244 0.00462298 0 200 0
-27.7511 -60.3203 0.00539348 0 200 0
-27.7539 -60.3162 0.00616398 0 200 0
-27.7566 -60.312 0.00693448 0 200 0
-27.7594 -60.3079 0.00770497 0 200 0
-27.7621 -60.3038 0.00847547 0 200 0
-27.7649 -60.2997 0.00924597 0 200 0
-27.7676 -60.2956 0.0100165 0 200 0
-27.7704 -60.2915 0.010787 0 200 0
-27.7731 -60.2874 0.0115575 0 200 0
-27.7759 -60.2833 0.012328 0 200 0
-27.7786 -60.2792 0.0130985 0 200 0
-27.7814 -60.2751 0.013869 0 200 0
-27.7841 -60.271 0.0146395 0 200 0
-27.7869 -60.2669 0.0154099 0 200 0
-27.7896 -60.2628 0.0161804 0 200 0
-27.7923 -60.2587 0.0169509 0 200 0
-27.7951 -60.2546 0.0177214 0 200 0
-27.7978 -60.2505 0.0184919 0 200 0
-27.8006 -60.2463 0.0192624 0 200 0
-27.8033 -60.2422 0.0200329 0 200 0
-27.8061 -60.2381 0.0208034 0 200 0
-27.8088 -60.234 0.0215739 0 200 0
-27.8116 -60.2299 0.0223444 0 200 0
-27.8143 -60.2258 0.0231149 0 200 0
-27.8171 -60.2217 0.0238854 0 200 0
-27.8198 -60.2176 0.0246559 0 200 0
-27.8226 -60.2135 0.0254264 0 200 0
-27.8253 -60.2094 0.0261969 0 200 0
-27.8281 -60.2053 0.0269674 0 200 0
-27.8308 -60.2012 0.0277379 0 200 0
-27.8335 -60.1971 0.0285084 0 200 0
-27.8363 -60.193 0.0292789 0 200 0
-27.839 -60.1889 0.0300494 0 200 0
-27.8418 -60.1848 0.0308199 0 200 0
-27.8445 -60.1806 0.0315904 0 200 0
-27.8473 -60.1765 0.0323609 0 200 0
-27.85 -60.1724 0.0331314 0 200 0
-27.8528 -60.1683 0.0339019 0 200 0
-27.8555 -60.1642 0.0346724 0 200 0
-27.8583 -60.1601 0.0354429 0 200 0
-27.861 -60.156 0.0362134 0 200 0
-27.8638 -60.1519 0.0369839 0 200 0
-27.8665 -60.1478 0.0377544 0 200 0
-27.8693 -60.1437 0.0385249 0 200 0
-27.872 -60.1396 0.0392954 0 200 0
-27.8748 -60.1355 0.0400659 0 200 0
-27.8775 -60.1314 0.0408364 0 200 0
-27.8802 -60.1273 0.0416069 0 200 0
-27.883 -60.1232 0.0423774 0 200 0
-27.8857 -60.1191 0.0431479 0 200 0
-27.8885 -60.1149 0.0439184 0 200 0
-27.8912 -60.1108 0.0446889 0 200 0
-27.894 -60.1067 0.0454593 0 200 0
-27.8967 -60.1026 0.0462298 0 200 0
-27.8995 -60.0985 0.0470003 0 200 0
-27.9022 -60.0944 0.0477708 0 200 0
-27.905 -60.0903 0.0485413 0 200 0
-27.9077 -60.0862 0.0493118 0 200 0
-27.9105 -60.0821 0.0500823 0 200 0
-27.9132 -60.078 0.0508528 0 200 0
-27.916 -60.0739 0.0516233 0 200 0
-27.9187 -60.0698 0.0523938 0 200 0
-27.9214 -60.0657 0.0531643 0 200 0
-27.9242 -60.0616 0.0539348 0 200 0
-27.9269 -60.0575 0.0547053 0 200 0
-27.9297 -60.0534 0.0554758 0 200 0
-27.9324 -60.0492 0.0562463 0 200 0
-27.9352 -60.0451 0.0570168 0 200 0
-27.9379 -60.041 0.0577873 0 200 0
-27.9407 -60.0369 0.0585578 0 200 0
-27.9434 -60.0328 0.0593283 0 200 0
-27.9462 -60.0287 0.0600988 0 200 0
-27.9489 -60.0246 0.0608693 0 200 0
-27.9517 -60.0205 0.0616398 0 200 0
-27.9544 -60.0164 0.0624103 0 200 0
-27.9572 -60.0123 0.0631808 0 200 0
-27.9599 -60.0082 0.0639513 0 200 0
-27.9626 -60.0041 0.0647218 0 200 0
-27.9654 -60 0.0654923 0 200 0
-27.9681 -59.9959 0.0662628 0 200 0
-27.9709 -59.9918 0.0670333 0 200 0
-27.9736 -59.9877 0.0678038 0 200 0
-27.9764 -59.9835 0.0685743 0 200 0
-27.9791 -59.9794 0.0693448 0 200 0
-27.9819 -59.9753 0.0701153 0 200 0
-27.9846 -59.9712 0.0708858 0 200 0
-27.9874 -59.9671 0.0716563 0 200 0
-27.9901 -59.963 0.0724268 0 200 0
-27.9929 -59.9589 0.0731973 0 200 0
-27.9956 -59.9548 0.0739678 0 200 0
-27.9984 -59.9507 0.0747382 0 200 0
-28.0011 -59.9466 0.0755088 0 200 0
-28.0039 -59.9425 0.0762792 0 200 0
-28.9763 -60.8601 0 0 200 0
-28.9769 -60.8552 0.000774773 0 200 0
-28.9774 -60.8503 0.00154955 0 200 0
-28.978 -60.8454 0.00232432 0 200 0
-28.9785 -60.8405 0.00309909 0 200 0
-28.9791 -60.8356 0.00387386 0 200 0
-28.9797 -60.8307 0.00464864 0 200 0
-28.9802 -60.8258 0.00542341 0 200 0
-28.9808 -60.8209 0.00619818 0 200 0
-28.9813 -60.816 0.00697296 0 200 0
-28.9819 -60.8111 0.00774773 0 200 0
-28.9825 -60.8062 0.0085225 0 200 0
-28.983 -60.8013 0.00929727 0 200 0
-28.9836 -60.7963 0.010072 0 200 0
-28.9841 -60.7914 0.0108468 0 200 0
-28.9847 -60.7865 0.0116216 0 200 0
-28.9853 -60.7816 0.0123964 0 200 0
-28.9858 -60.7767 0.0131711 0 200 0
-28.9864 -60.7718 0.0139459 0 200 0
-28.9869 -60.7669 0.0147207 0 200 0
-28.9875 -60.762 0.0154955 0 200 0
-28.9881 -60.7571 0.0162702 0 200 0
-28.9886 -60.7522 0.017045 0 200 0
-28.9892 -60.7473 0.0178198 0 200 0
-28.9897 -60.7424 0.0185945 0 200 0
-28.9903 -60.7375 0.0193693 0 200 0
-28.9909 -60.7325 0.0201441 0 200 0
-28.9914 -60.7276 0.0209189 0 200 0
-28.992 -60.7227 0.0216936 0 200 0
-28.9925 -60.7178 0.0224684 0 200 0
-28.9931 -60.7129 0.0232432 0 200 0
-28.9937 -60.708 0.024018 0 200 0
-28.9942 -60.7031 0.0247927 0 200 0
-28.9948 -60.6982 0.0255675 0 200 0
-28.9954 -60.6933 0.0263423 0 200 0
-28.9959 -60.6884 0.027117 0 200 0
-28.9965 -60.6835 0.0278918 0 200 0
-28.997 -60.6786 0.0286666 0 200 0
-28.9976 -60.6737 0.0294414 0 200 0
-28.9982 -60.6687 0.0302161 0 200 0
-28.9987 -60.6638 0.0309909 0 200 0
-28.9993 -60.6589 0.0317657 0 200 0
-28.9998 -60.654 0.0325405 0 200 0
-29.0004 -60.6491 0.0333152 0 200 0
-29.001 -60.6442 0.03409 0 200 0
-29.0015 -60.6393 0.0348648 0 200 0
-29.0021 -60.6344 0.0356396 0 200 0
-29.0026 -60.6295 0.0364143 0 200 0
-29.0032 -60.6246 0.0371891 0 200 0
-29.0038 -60.6197 0.0379639 0 200 0
-29.0043 -60.6148 0.0387386 0 200 0
-29.0049 -60.6099 0.0395134 0 200 0
-29.0054 -60.6049 0.0402882 0 200 0
-29.006 -60.6 0.041063 0 200 0
-29.0066 -60.5951 0.0418377 0 200 0
-29.0071 -60.5902 0.0426125 0 200 0
-29.0077 -60.5853 0.0433873 0 200 0
-29.0082 -60.5804 0.0441621 0 200 0
-29.0088 -60.5755 0.0449368 0 200 0
-29.0094 -60.5706 0.0457116 0 200 0
-29.0099 -60.5657 0.0464864 0 200 0
-29.0105 -60.5608 0.0472611 0 200 0
-29.011 -60.5559 0.0480359 0 200 0
-29.0116 -60.551 0.0488107 0 200 0
-29.0122 -60.5461 0.0495855 0 200 0
-29.0127 -60.5411 0.0503602 0 200 0
-29.0133 -60.5362 0.051135 0 200 0
-29.0138 -60.5313 0.0519098 0 200 0
-29.0144 -60.5264 0.0526846 0 200 0
-29.015 -60.5215 0.0534593 0 200 0
-29.0155 -60.5166 0.0542341 0 200 0
-29.0161 -60.5117 0.0550089 0 200 0
-29.0166 -60.5068 0.0557836 0 200 0
-29.0172 -60.5019 0.0565584 0 200 0
-29.0178 -60.497 0.0573332 0 200 0
-29.0183 -60.4921 0.058108 0 200 0
-29.0189 -60.4872 0.0588827 0 200 0
-29.0194 -60.4823 0.0596575 0 200 0
-29.02 -60.4773 0.0604323 0 200 0
-29.0206 -60.4724 0.0612071 0 200 0
-29.0211 -60.4675 0.0619818 0 200 0
-29.0217 -60.4626 0.0627566 0 200 0
-29.0222 -60.4577 0.0635314 0 200 0
-29.0228 -60.4528 0.0643061 0 200 0
-29.0234 -60.4479 0.0650809 0 200 0
-29.0239 -60.443 0.0658557 0 200 0
-29.0245 -60.4381 0.0666305 0 200 0
-29.025 -60.4332 0.0674052 0 200 0
-29.0256 -60.4283 0.06818 0 200 0
-29.0262 -60.4234 0.0689548 0 200 0
-29.0267 -60.4184 0.0697296 0 200 0
-29.0273 -60.4135 0.0705043 0 200 0
-29.0278 -60.4086 0.0712791 0 200 0
-29.0284 -60.4037 0.0720539 0 200 0
-29.029 -60.3988 0.0728287 0 200 0
-29.0295 -60.3939 0.0736034 0 200 0
-29.0301 -60.389 0.0743782 0 200 0
-29.0306 -60.3841 0.075153 0 200 0
-29.0312 -60.3792 0.0759277 0 200 0
-29.0318 -60.3743 0.0767025 0 200 0
-30.0267 -61.3449 0 0 200 0
-30.029 -61.3405 0.000703008 0 200 0
-30.0313 -61.3361 0.00140602 0 200 0
-30.0336 -61.3317 0.00210902 0 200 0
-30.0359 -61.3274 0.00281203 0 200 0
-30.0382 -61.323 0.00351504 0 200 0
-30.0405 -61.3186 0.00421805 0 200 0
-30.0429 -61.3142 0.00492106 0 200 0
-30.0452 -61.3099 0.00562407 0 200 0
-30.0475 -61.3055 0.00632707 0 200 0
-30.0498 -61.3011 0.00703008 0 200 0
-30.0521 -61.2967 0.00773309 0 200 0
-30.0544 -61.2923 0.0084361 0 200 0
-30.0567 -61.288 0.00913911 0 200 0
-30.059 -61.2836 0.00984212 0 200 0
-30.0614 -61.2792 0.0105451 0 200 0
-30.0637 -61.2748 0.0112481 0 200 0
-30.066 -61.2705 0.0119511 0 200 0
-30.0683 -61.2661 0.0126541 0 200 0
-30.0706 -61.2617 0.0133572 0 200 0
-30.0729 -61.2573 0.0140602 0 200 0
-30.0752 -61.253 0.0147632 0 200 0
-30.0775 -61.2486 0.0154662 0 200 0
-30.0798 -61.2442 0.0161692 0 200 0
-30.0822 -61.2398 0.0168722 0 200 0
-30.0845 -61.2354 0.0175752 0 200 0
-30.0868 -61.2311 0.0182782 0 200 0
-30.0891 -61.2267 0.0189812 0 200 0
-30.0914 -61.2223 0.0196842 0 200 0
-30.0937 -61.2179 0.0203872 0 200 0
-30.096 -61.2136 0.0210902 0 200 0
-30.0983 -61.2092 0.0217933 0 200 0
-30.1007 -61.2048 0.0224963 0 200 0
-30.103 -61.2004 0.0231993 0 200 0
-30.1053 -61.196 0.0239023 0 200 0
-30.1076 -61.1917 0.0246053 0 200 0
-30.1099 -61.1873 0.0253083 0 200 0
-30.1122 -61.1829 0.0260113 0 200 0
-30.1145 -61.1785 0.0267143 0 200 0
-30.1168 -61.1742 0.0274173 0 200 0
-30.1191 -61.1698 0.0281203 0 200 0
-30.1215 -61.1654 0.0288233 0 200 0
-30.1238 -61.161 0.0295263 0 200 0
-30.1261 -61.1567 0.0302294 0 200 0
-30.1284 -61.1523 0.0309324 0 200 0
-30.1307 -61.1479 0.0316354 0 200 0
-30.133 -61.1435 0.0323384 0 200 0
-30.1353 -61.1391 0.0330414 0 200 0
-30.1376 -61.1348 0.0337444 0 200 0
-30.14 -61.1304 0.0344474 0 200 0
-30.1423 -61.126 0.0351504 0 200 0
-30.1446 -61.1216 0.0358534 0 200 0
-30.1469 -61.1173 0.0365564 0 200 0
-30.1492 -61.1129 0.0372594 0 200 0
-30.1515 -61.1085 0.0379624 0 200 0
-30.1538 -61.1041 0.0386655 0 200 0
-30.1561 -61.0997 0.0393685 0 200 0
-30.1584 -61.0954 0.0400715 0 200 0
-30.1608 -61.091 0.0407745 0 200 0
-30.1631 -61.0866 0.0414775 0 200 0
-30.1654 -61.0822 0.0421805 0 200 0
-30.1677 -61.0779 0.0428835 0 200 0
-30.17 -61.0735 0.0435865 0 200 0
-30.1723 -61.0691 0.0442895 0 200 0
-30.1746 -61.0647 0.0449925 0 200 0
-30.1769 -61.0603 0.0456955 0 200 0
-30.1793 -61.056 0.0463986 0 200 0
-30.1816 -61.0516 0.0471016 0 200 0
-30.1839 -61.0472 0.0478046 0 200 0
-30.1862 -61.0428 0.0485076 0 200 0
-30.1885 -61.0385 0.0492106 0 200 0
-30.1908 -61.0341 0.0499136 0 200 0
-30.1931 -61.0297 0.0506166 0 200 0
-30.1954 -61.0253 0.0513196 0 200 0
-30.1978 -61.021 0.0520226 0 200 0
-30.2001 -61.0166 0.0527256 0 200 0
-30.2024 -61.0122 0.0534286 0 200 0
-30.2047 -61.0078 0.0541316 0 200 0
-30.207 -61.0034 0.0548346 0 200 0
-30.2093 -60.9991 0.0555377 0 200 0
-30.2116 -60.9947 0.0562407 0 200 0
-30.2139 -60.9903 0.0569437 0 200 0
-30.2162 -60.9859 0.0576467 0 200 0
-30.2186 -60.9816 0.0583497 0 200 0
-30.2209 -60.9772 0.0590527 0 200 0
-30.2232 -60.9728 0.0597557 0 200 0
-30.2255 -60.9684 0.0604587 0 200 0
-30.2278 -60.964 0.0611617 0 200 0
-30.2301 -60.9597 0.0618647 0 200 0
-30.2324 -60.9553 0.0625677 0 200 0
-30.2347 -60.9509 0.0632707 0 200 0
-30.2371 -60.9465 0.0639738 0 200 0
-30.2394 -60.9422 0.0646768 0 200 0
-30.2417 -60.9378 0.0653798 0 200 0
-30.244 -60.9334 0.0660828 0 200 0
-30.2463 -60.929 0.0667858 0 200 0
-30.2486 -60.9246 0.0674888 0 200 0
-30.2509 -60.9203 0.0681918 0 200 0
-30.2532 -60.9159 0.0688948 0 200 0
-30.2555 -60.9115 0.0695978 0 200 0
-30.7259 -61.2749 0 0 200 0
-30.7307 -61.2746 0.00107214 0 200 0
-30.7356 -61.2743 0.00214428 0 200 0
-30.7405 -61.274 0.00321642 0 200 0
-30.7454 -61.2737 0.00428855 0 200 0
-30.7502 -61.2734 0.00536069 0 200 0
-30.7551 -61.2731 0.00643283 0 200 0
-30.76 -61.2728 0.00750497 0 200 0
-30.7649 -61.2725 0.00857711 0 200 0
-30.7697 -61.2722 0.00964925 0 200 0
-30.7746 -61.2719 0.0107214 0 200 0
-30.7795 -61.2716 0.0117935 0 200 0
-30.7844 -61.2713 0.0128657 0 200 0
-30.7892 -61.271 0.0139378 0 200 0
-30.7941 -61.2708 0.0150099 0 200 0
-30.799 -61.2705 0.0160821 0 200 0
-30.8039 -61.2702 0.0171542 0 200 0
-30.8087 -61.2699 0.0182264 0 200 0
-30.8136 -61.2696 0.0192985 0 200 0
-30.8185 -61.2693 0.0203706 0 200 0
-30.8234 -61.269 0.0214428 0 200 0
-30.8282 -61.2687 0.0225149 0 200 0
-30.8331 -61.2684 0.023587 0 200 0
-30.838 -61.2681 0.0246592 0 200 0
-30.8429 -61.2678 0.0257313 0 200 0
-30.8477 -61.2675 0.0268035 0 200 0
-30.8526 -61.2672 0.0278756 0 200 0
-30.8575 -61.2669 0.0289477 0 200 0
-30.8624 -61.2666 0.0300199 0 200 0
-30.8672 -61.2663 0.031092 0 200 0
-30.8721 -61.266 0.0321642 0 200 0
-30.877 -61.2657 0.0332363 0 200 0
-30.8818 -61.2654 0.0343084 0 200 0
-30.8867 -61.2651 0.0353806 0 200 0
-30.8916 -61.2648 0.0364527 0 200 0
-30.8965 -61.2645 0.0375248 0 200 0
-30.9013 -61.2642 0.038597 0 200 0
-30.9062 -61.2639 0.0396691 0 200 0
-30.9111 -61.2636 0.0407413 0 200 0
-30.916 -61.2634 0.0418134 0 200 0
-30.9208 -61.2631 0.0428855 0 200 0
-30.9257 -61.2628 0.0439577 0 200 0
-30.9306 -61.2625 0.0450298 0 200 0
-30.9355 -61.2622 0.046102 0 200 0
-30.9403 -61.2619 0.0471741 0 200 0
-30.9452 -61.2616 0.0482462 0 200 0
-30.9501 -61.2613 0.0493184 0 200 0
-30.955 -61.261 0.0503905 0 200 0
-30.9598 -61.2607 0.0514626 0 200 0
-30.9647 -61.2604 0.0525348 0 200 0
-30.9696 -61.2601 0.0536069 0 200 0
-30.9745 -61.2598 0.0546791 0 200 0
-30.9793 -61.2595 0.0557512 0 200 0
-30.9842 -61.2592 0.0568233 0 200 0
-30.9891 -61.2589 0.0578955 0 200 0
-30.994 -61.2586 0.0589676 0 200 0
-30.9988 -61.2583 0.0600398 0 200 0
-31.0037 -61.258 0.0611119 0 200 0
-31.0086 -61.2577 0.062184 0 200 0
-31.0135 -61.2574 0.0632562 0 200 0
-31.0183 -61.2571 0.0643283 0 200 0
-31.0232 -61.2568 0.0654005 0 200 0
-31.0281 -61.2565 0.0664726 0 200 0
-31.033 -61.2562 0.0675447 0 200 0
-31.0378 -61.256 0.0686169 0 200 0
-31.0427 -61.2557 0.069689 0 200 0
-31.0476 -61.2554 0.0707611 0 200 0
-31.0525 -61.2551 0.0718333 0 200 0
-31.0573 -61.2548 0.0729054 0 200 0
-31.0622 -61.2545 0.0739776 0 200 0
-31.0671 -61.2542 0.0750497 0 200 0
-31.072 -61.2539 0.0761218 0 200 0
-31.0768 -61.2536 0.077194 0 200 0
-31.0817 -61.2533 0.0782661 0 200 0
-31.0866 -61.253 0.0793382 0 200 0
-31.0915 -61.2527 0.0804104 0 200 0
-31.0963 -61.2524 0.0814825 0 200 0
-31.1012 -61.2521 0.0825547 0 200 0
-31.1061 -61.2518 0.0836268 0 200 0
-31.111 -61.2515 0.0846989 0 200 0
-31.1158 -61.2512 0.0857711 0 200 0
-31.1207 -61.2509 0.0868432 0 200 0
-31.1256 -61.2506 0.0879154 0 200 0
-31.1305 -61.2503 0.0889875 0 200 0
-31.1353 -61.25 0.0900596 0 200 0
-31.1402 -61.2497 0.0911318 0 200 0
-31.1451 -61.2494 0.0922039 0 200 0
-31.15 -61.2491 0.093276 0 200 0
-31.1548 -61.2489 0.0943482 0 200 0
-31.1597 -61.2486 0.0954203 0 200 0
-31.1646 -61.2483 0.0964925 0 200 0
-31.1695 -61.248 0.0975646 0 200 0
-31.1743 -61.2477 0.0986367 0 200 0
-31.1792 -61.2474 0.0997089 0 200 0
-31.1841 -61.2471 0.100781 0 200 0
-31.189 -61.2468 0.101853 0 200 0
-31.1938 -61.2465 0.102925 0 200 0
-31.1987 -61.2462 0.103997 0 200 0
-31.2036 -61.2459 0.10507 0 200 0
-31.2085 -61.2456 0.106142 0 200 0
-31.599 -61.0014 0 0 200 0
-31.6039 -61.0022 0.000950426 0 200 0
-31.6087 -61.003 0.00190085 0 200 0
-31.6135 -61.0038 0.00285128 0 200 0
-31.6184 -61.0046 0.0038017 0 200 0
-31.6232 -61.0054 0.00475213 0 200 0
-31.6281 -61.0062 0.00570255 0 200 0
-31.6329 -61.007 0.00665298 0 200 0
-31.6378 -61.0078 0.0076034 0 200 0
-31.6426 -61.0086 0.00855383 0 200 0
-31.6474 -61.0094 0.00950426 0 200 0
-31.6523 -61.0102 0.0104547 0 200 0
-31.6571 -61.011 0.0114051 0 200 0
-31.662 -61.0118 0.0123555 0 200 0
-31.6668 -61.0126 0.013306 0 200 0
-31.6717 -61.0134 0.0142564 0 200 0
-31.6765 -61.0142 0.0152068 0 200 0
-31.6813 -61.015 0.0161572 0 200 0
-31.6862 -61.0158 0.0171077 0 200 0
-31.691 -61.0166 0.0180581 0 200 0
-31.6959 -61.0174 0.0190085 0 200 0
-31.7007 -61.0182 0.0199589 0 200 0
-31.7056 -61.019 0.0209094 0 200 0
-31.7104 -61.0198 0.0218598 0 200 0
-31.7152 -61.0206 0.0228102 0 200 0
-31.7201 -61.0214 0.0237606 0 200 0
-31.7249 -61.0222 0.0247111 0 200 0
-31.7298 -61.023 0.0256615 0 200 0
-31.7346 -61.0238 0.0266119 0 200 0
-31.7395 -61.0246 0.0275623 0 200 0
-31.7443 -61.0254 0.0285128 0 200 0
-31.7491 -61.0262 0.0294632 0 200 0
-31.754 -61.027 0.0304136 0 200 0
-31.7588 -61.0278 0.031364 0 200 0
-31.7637 -61.0286 0.0323145 0 200 0
-31.7685 -61.0294 0.0332649 0 200 0
-31.7734 -61.0302 0.0342153 0 200 0
-31.7782 -61.031 0.0351657 0 200 0
-31.783 -61.0318 0.0361162 0 200 0
-31.7879 -61.0326 0.0370666 0 200 0
-31.7927 -61.0334 0.038017 0 200 0
-31.7976 -61.0342 0.0389674 0 200 0
-31.8024 -61.035 0.0399179 0 200 0
-31.8073 -61.0358 0.0408683 0 200 0
-31.8121 -61.0366 0.0418187 0 200 0
-31.817 -61.0374 0.0427691 0 200 0
-31.8218 -61.0382 0.0437196 0 200 0
-31.8266 -61.039 0.04467 0 200 0
-31.8315 -61.0398 0.0456204 0 200 0
-31.8363 -61.0406 0.0465709 0 200 0
-31.8412 -61.0414 0.0475213 0 200 0
-31.846 -61.0422 0.0484717 0 200 0
-31.8509 -61.043 0.0494221 0 200 0
-31.8557 -61.0438 0.0503726 0 200 0
-31.8605 -61.0446 0.051323 0 200 0
-31.8654 -61.0454 0.0522734 0 200 0
-31.8702 -61.0462 0.0532238 0 200 0
-31.8751 -61.047 0.0541743 0 200 0
-31.8799 -61.0478 0.0551247 0 200 0
-31.8848 -61.0486 0.0560751 0 200 0
-31.8896 -61.0494 0.0570255 0 200 0
-31.8944 -61.0502 0.057976 0 200 0
-31.8993 -61.051 0.0589264 0 200 0
-31.9041 -61.0518 0.0598768 0 200 0
-31.909 -61.0526 0.0608272 0 200 0
-31.9138 -61.0534 0.0617777 0 200 0
-31.9187 -61.0542 0.0627281 0 200 0
-31.9235 -61.055 0.0636785 0 200 0
-31.9283 -61.0558 0.0646289 0 200 0
-31.9332 -61.0566 0.0655794 0 200 0
-31.938 -61.0574 0.0665298 0 200 0
-31.9429 -61.0582 0.0674802 0 200 0
-31.9477 -61.059 0.0684306 0 200 0
-31.9526 -61.0598 0.0693811 0 200 0
-31.9574 -61.0606 0.0703315 0 200 0
-31.9622 -61.0614 0.0712819 0 200 0
-31.9671 -61.0622 0.0722323 0 200 0
-31.9719 -61.063 0.0731828 0 200 0
-31.9768 -61.0638 0.0741332 0 200 0
-31.9816 -61.0646 0.0750836 0 200 0
-31.9865 -61.0654 0.076034 0 200 0
-31.9913 -61.0662 0.0769845 0 200 0
-31.9961 -61.067 0.0779349 0 200 0
-32.001 -61.0678 0.0788853 0 200 0
-32.0058 -61.0686 0.0798357 0 200 0
-32.0107 -61.0694 0.0807862 0 200 0
-32.0155 -61.0702 0.0817366 0 200 0
-32.0204 -61.071 0.082687 0 200 0
-32.0252 -61.0718 0.0836374 0 200 0
-32.0301 -61.0726 0.0845879 0 200 0
-32.0349 -61.0734 0.0855383 0 200 0
-32.0397 -61.0742 0.0864887 0 200 0
-32.0446 -61.075 0.0874391 0 200 0
-32.0494 -61.0758 0.0883896 0 200 0
-32.0543 -61.0766 0.08934 0 200 0
-32.0591 -61.0774 0.0902904 0 200 0
-32.064 -61.0782 0.0912409 0 200 0
-32.0688 -61.079 0.0921913 0 200 0
-32.0736 -61.0798 0.0931417 0 200 0
-32.0785 -61.0806 0.0940921 0 200 0
-32.3208 -61.2208 0 0 200 0
-32.3257 -61.2201 0.000661319 0 200 0
-32.3306 -61.2194 0.00132264 0 200 0
-32.3355 -61.2187 0.00198396 0 200 0
-32.3404 -61.218 0.00264528 0 200 0
-32.3453 -61.2173 0.0033066 0 200 0
-32.3502 -61.2166 0.00396792 0 200 0
-32.3551 -61.2159 0.00462923 0 200 0
-32.36 -61.2152 0.00529055 0 200 0
-32.3649 -61.2145 0.00595187 0 200 0
-32.3699 -61.2138 0.00661319 0 200 0
-32.3748 -61.2131 0.00727451 0 200 0
-32.3797 -61.2124 0.00793583 0 200 0
-32.3846 -61.2117 0.00859715 0 200 0
-32.3895 -61.211 0.00925847 0 200 0
-32.3944 -61.2103 0.00991979 0 200 0
-32.3993 -61.2096 0.0105811 0 200 0
-32.4042 -61.2089 0.0112424 0 200 0
-32.4091 -61.2082 0.0119037 0 200 0
-32.414 -61.2075 0.0125651 0 200 0
-32.4189 -61.2068 0.0132264 0 200 0
-32.4238 -61.2061 0.0138877 0 200 0
-32.4287 -61.2054 0.014549 0 200 0
-32.4336 -61.2047 0.0152103 0 200 0
-32.4385 -61.204 0.0158717 0 200 0
-32.4434 -61.2033 0.016533 0 200 0
-32.4484 -61.2026 0.0171943 0 200 0
-32.4533 -61.2019 0.0178556 0 200 0
-32.4582 -61.2012 0.0185169 0 200 0
-32.4631 -61.2005 0.0191783 0 200 0
-32.468 -61.1998 0.0198396 0 200 0
-32.4729 -61.1991 0.0205009 0 200 0
-32.4778 -61.1984 0.0211622 0 200 0
-32.4827 -61.1977 0.0218235 0 200 0
-32.4876 -61.197 0.0224849 0 200 0
-32.4925 -61.1963 0.0231462 0 200 0
-32.4974 -61.1956 0.0238075 0 200 0
-32.5023 -61.1949 0.0244688 0 200 0
-32.5072 -61.1942 0.0251301 0 200 0
-32.5121 -61.1935 0.0257915 0 200 0
-32.517 -61.1928 0.0264528 0 200 0
-32.5219 -61.1921 0.0271141 0 200 0
-32.5269 -61.1914 0.0277754 0 200 0
-32.5318 -61.1907 0.0284367 0 200 0
-32.5367 -61.19 0.029098 0 200 0
-32.5416 -61.1893 0.0297594 0 200 0
-32.5465 -61.1886 0.0304207 0 200 0
-32.5514 -61.1879 0.031082 0 200 0
-32.5563 -61.1872 0.0317433 0 200 0
-32.5612 -61.1865 0.0324046 0 200 0
-32.5661 -61.1858 0.033066 0 200 0
-32.571 -61.1851 0.0337273 0 200 0
-32.5759 -61.1844 0.0343886 0 200 0
-32.5808 -61.1837 0.0350499 0 200 0
-32.5857 -61.183 0.0357112 0 200 0
-32.5906 -61.1823 0.0363726 0 200 0
-32.5955 -61.1816 0.0370339 0 200 0
-32.6005 -61.1809 0.0376952 0 200 0
-32.6054 -61.1802 0.0383565 0 200 0
-32.6103 -61.1795 0.0390178 0 200 0
-32.6152 -61.1788 0.0396792 0 200 0
-32.6201 -61.1781 0.0403405 0 200 0
-32.625 -61.1774 0.0410018 0 200 0
-32.6299 -61.1767 0.0416631 0 200 0
-32.6348 -61.176 0.0423244 0 200 0
-32.6397 -61.1753 0.0429858 0 200 0
-32.6446 -61.1746 0.0436471 0 200 0
-32.6495 -61.1739 0.0443084 0 200 0
-32.6544 -61.1732 0.0449697 0 200 0
-32.6593 -61.1725 0.045631 0 200 0
-32.6642 -61.1718 0.0462923 0 200 0
-32.6691 -61.1711 0.0469537 0 200 0
-32.674 -61.1704 0.047615 0 200 0
-32.679 -61.1697 0.0482763 0 200 0
-32.6839 -61.169 0.0489376 0 200 0
-32.6888 -61.1683 0.0495989 0 200 0
-32.6937 -61.1676 0.0502603 0 200 0
-32.6986 -61.1669 0.0509216 0 200 0
-32.7035 -61.1662 0.0515829 0 200 0
-32.7084 -61.1655 0.0522442 0 200 0
-32.7133 -61.1648 0.0529055 0 200 0
-32.7182 -61.1641 0.0535669 0 200 0
-32.7231 -61.1634 0.0542282 0 200 0
-32.728 -61.1627 0.0548895 0 200 0
-32.7329 -61.162 0.0555508 0 200 0
-32.7378 -61.1613 0.0562121 0 200 0
-32.7427 -61.1606 0.0568735 0 200 0
-32.7476 -61.1599 0.0575348 0 200 0
-32.7526 -61.1592 0.0581961 0 200 0
-32.7575 -61.1585 0.0588574 0 200 0
-32.7624 -61.1578 0.0595187 0 200 0
-32.7673 -61.1571 0.0601801 0 200 0
-32.7722 -61.1564 0.0608414 0 200 0
-32.7771 -61.1557 0.0615027 0 200 0
-32.782 -61.155 0.062164 0 200 0
-32.7869 -61.1543 0.0628253 0 200 0
-32.7918 -61.1536 0.0634867 0 200 0
-32.7967 -61.1529 0.064148 0 200 0
-32.8016 -61.1522 0.0648093 0 200 0
-32.8065 -61.1515 0.0654706 0 200 0
-32.9913 -61.6019 0 0 200 0
-32.9963 -61.6022 0.000246163 0 200 0
-33.0013 -61.6024 0.000492326 0 200 0
-33.0063 -61.6026 0.000738488 0 200 0
-33.0113 -61.6028 0.000984651 0 200 0
-33.0163 -61.603 0.00123081 0 200 0
-33.0213 -61.6033 0.00147698 0 200 0
-33.0263 -61.6035 0.00172314 0 200 0
-33.0313 -61.6037 0.0019693 0 200 0
-33.0362 -61.6039 0.00221546 0 200 0
-33.0412 -61.6041 0.00246163 0 200 0
-33.0462 -61.6044 0.00270779 0 200 0
-33.0512 -61.6046 0.00295395 0 200 0
-33.0562 -61.6048 0.00320012 0 200 0
-33.0612 -61.605 0.00344628 0 200 0
-33.0662 -61.6052 0.00369244 0 200 0
-33.0712 -61.6055 0.0039386 0 200 0
-33.0762 -61.6057 0.00418477 0 200 0
-33.0811 -61.6059 0.00443093 0 200 0
-33.0861 -61.6061 0.00467709 0 200 0
-33.0911 -61.6063 0.00492326 0 200 0
-33.0961 -61.6066 0.00516942 0 200 0
-33.1011 -61.6068 0.00541558 0 200 0
-33.1061 -61.607 0.00566174 0 200 0
-33.1111 -61.6072 0.00590791 0 200 0
-33.1161 -61.6074 0.00615407 0 200 0
-33.1211 -61.6077 0.00640023 0 200 0
-33.126 -61.6079 0.00664639 0 200 0
-33.131 -61.6081 0.00689256 0 200 0
-33.136 -61.6083 0.00713872 0 200 0
-33.141 -61.6086 0.00738488 0 200 0
-33.146 -61.6088 0.00763105 0 200 0
-33.151 -61.609 0.00787721 0 200 0
-33.156 -61.6092 0.00812337 0 200 0
-33.161 -61.6094 0.00836953 0 200 0
-33.166 -61.6097 0.0086157 0 200 0
-33.1709 -61.6099 0.00886186 0 200 0
-33.1759 -61.6101 0.00910802 0 200 0
-33.1809 -61.6103 0.00935419 0 200 0
-33.1859 -61.6105 0.00960035 0 200 0
-33.1909 -61.6108 0.00984651 0 200 0
-33.1959 -61.611 0.0100927 0 200 0
-33.2009 -61.6112 0.0103388 0 200 0
-33.2059 -61.6114 0.010585 0 200 0
-33.2109 -61.6116 0.0108312 0 200 0
-33.2159 -61.6119 0.0110773 0 200 0
-33.2208 -61.6121 0.0113235 0 200 0
-33.2258 -61.6123 0.0115696 0 200 0
-33.2308 -61.6125 0.0118158 0 200 0
-33.2358 -61.6127 0.012062 0 200 0
-33.2408 -61.613 0.0123081 0 200 0
-33.2458 -61.6132 0.0125543 0 200 0
-33.2508 -61.6134 0.0128005 0 200 0
-33.2558 -61.6136 0.0130466 0 200 0
-33.2607 -61.6138 0.0132928 0 200 0
-33.2657 -61.6141 0.013539 0 200 0
-33.2707 -61.6143 0.0137851 0 200 0
-33.2757 -61.6145 0.0140313 0 200 0
-33.2807 -61.6147 0.0142774 0 200 0
-33.2857 -61.6149 0.0145236 0 200 0
-33.2907 -61.6152 0.0147698 0 200 0
-33.2957 -61.6154 0.0150159 0 200 0
-33.3007 -61.6156 0.0152621 0 200 0
-33.3057 -61.6158 0.0155083 0 200 0
-33.3106 -61.616 0.0157544 0 200 0
-33.3156 -61.6163 0.0160006 0 200 0
-33.3206 -61.6165 0.0162467 0 200 0
-33.3256 -61.6167 0.0164929 0 200 0
-33.3306 -61.6169 0.0167391 0 200 0
-33.3356 -61.6171 0.0169852 0 200 0
-33.3406 -61.6174 0.0172314 0 200 0
-33.3456 -61.6176 0.0174776 0 200 0
-33.3506 -61.6178 0.0177237 0 200 0
-33.3555 -61.618 0.0179699 0 200 0
-33.3605 -61.6182 0.018216 0 200 0
-33.3655 -61.6185 0.0184622 0 200 0
-33.3705 -61.6187 0.0187084 0 200 0
-33.3755 -61.6189 0.0189545 0 200 0
-33.3805 -61.6191 0.0192007 0 200 0
-33.3855 -61.6194 0.0194469 0 200 0
-33.3905 -61.6196 0.019693 0 200 0
-33.3955 -61.6198 0.0199392 0 200 0
-33.4004 -61.62 0.0201853 0 200 0
-33.4054 -61.6202 0.0204315 0 200 0
-33.4104 -61.6205 0.0206777 0 200 0
-33.4154 -61.6207 0.0209238 0 200 0
-33.4204 -61.6209 0.02117 0 200 0
-33.4254 -61.6211 0.0214162 0 200 0
-33.4304 -61.6213 0.0216623 0 200 0
-33.4354 -61.6216 0.0219085 0 200 0
-33.4404 -61.6218 0.0221546 0 200 0
-33.4453 -61.622 0.0224008 0 200 0
-33.4503 -61.6222 0.022647 0 200 0
-33.4553 -61.6224 0.0228931 0 200 0
-33.4603 -61.6227 0.0231393 0 200 0
-33.4653 -61.6229 0.0233855 0 200 0
-33.4703 -61.6231 0.0236316 0 200 0
-33.4753 -61.6233 0.0238778 0 200 0
-33.4803 -61.6235 0.024124 0 200 0
-33.4853 -61.6238 0.0243701 0 200 0
-33.7925 -61.9512 0 0 200 0
-33.7974 -61.9519 0.000858288 0 200 0
-33.8023 -61.9527 0.00171658 0 200 0
-33.8071 -61.9534 0.00257486 0 200 0
-33.812 -61.9542 0.00343315 0 200 0
-33.8169 -61.955 0.00429144 0 200 0
-33.8217 -61.9557 0.00514973 0 200 0
-33.8266 -61.9565 0.00600802 0 200 0
-33.8315 -61.9572 0.00686631 0 200 0
-33.8363 -61.958 0.00772459 0 200 0
-33.8412 -61.9587 0.00858288 0 200 0
-33.8461 -61.9595 0.00944117 0 200 0
-33.8509 -61.9603 0.0102995 0 200 0
-33.8558 -61.961 0.0111577 0 200 0
-33.8607 -61.9618 0.012016 0 200 0
-33.8655 -61.9625 0.0128743 0 200 0
-33.8704 -61.9633 0.0137326 0 200 0
-33.8753 -61.964 0.0145909 0 200 0
-33.8801 -61.9648 0.0154492 0 200 0
-33.885 -61.9656 0.0163075 0 200 0
-33.8899 -61.9663 0.0171658 0 200 0
-33.8947 -61.9671 0.0180241 0 200 0
-33.8996 -61.9678 0.0188823 0 200 0
-33.9045 -61.9686 0.0197406 0 200 0
-33.9093 -61.9693 0.0205989 0 200 0
-33.9142 -61.9701 0.0214572 0 200 0
-33.9191 -61.9709 0.0223155 0 200 0
-33.9239 -61.9716 0.0231738 0 200 0
-33.9288 -61.9724 0.0240321 0 200 0
-33.9337 -61.9731 0.0248904 0 200 0
-33.9385 -61.9739 0.0257486 0 200 0
-33.9434 -61.9747 0.0266069 0 200 0
-33.9483 -61.9754 0.0274652 0 200 0
-33.9531 -61.9762 0.0283235 0 200 0
