ply
format ascii 1.0
element vertex 1332
property float x
property float y
property float z
property uchar red
property uchar green
property uchar blue
element face 0
property list uchar int vertex_indices
end_header
18.7944 -21.4183 -0.0420246 0 200 0
18.7914 -21.4223 -0.0425925 0 200 0
18.7884 -21.4262 -0.0431604 0 200 0
18.7854 -21.4302 -0.0437283 0 200 0
18.7823 -21.4341 -0.0442962 0 200 0
18.7793 -21.4381 -0.0448641 0 200 0
18.7763 -21.442 -0.045432 0 200 0
18.7733 -21.446 -0.0459999 0 200 0
18.7703 -21.4499 -0.0465678 0 200 0
18.7673 -21.4539 -0.0471357 0 200 0
18.7643 -21.4578 -0.0477036 0 200 0
18.7612 -21.4618 -0.0482715 0 200 0
18.7582 -21.4657 -0.0488394 0 200 0
18.7552 -21.4697 -0.0494073 0 200 0
18.7522 -21.4736 -0.0499752 0 200 0
18.7492 -21.4776 -0.0505431 0 200 0
18.7462 -21.4815 -0.051111 0 200 0
18.7431 -21.4855 -0.0516789 0 200 0
18.7401 -21.4894 -0.0522468 0 200 0
18.7371 -21.4933 -0.0528147 0 200 0
18.7341 -21.4973 -0.0533826 0 200 0
18.7311 -21.5012 -0.0539505 0 200 0
18.7281 -21.5052 -0.0545184 0 200 0
18.7251 -21.5091 -0.0550863 0 200 0
18.722 -21.5131 -0.0556542 0 200 0
18.719 -21.517 -0.0562221 0 200 0
19.0165 -22.8483 0 0 200 0
19.0144 -22.8527 -0.000644246 0 200 0
19.0122 -22.8572 -0.00128849 0 200 0
19.0101 -22.8617 -0.00193274 0 200 0
19.008 -22.8662 -0.00257698 0 200 0
19.0058 -22.8706 -0.00322123 0 200 0
19.0037 -22.8751 -0.00386548 0 200 0
19.0016 -22.8796 -0.00450972 0 200 0
18.9994 -22.8841 -0.00515397 0 200 0
18.9973 -22.8885 -0.00579821 0 200 0
18.9952 -22.893 -0.00644246 0 200 0
18.993 -22.8975 -0.0070867 0 200 0
18.9909 -22.902 -0.00773095 0 200 0
18.9888 -22.9064 -0.0083752 0 200 0
18.9866 -22.9109 -0.00901944 0 200 0
18.9845 -22.9154 -0.00966369 0 200 0
18.9823 -22.9199 -0.0103079 0 200 0
18.9802 -22.9243 -0.0109522 0 200 0
18.9781 -22.9288 -0.0115964 0 200 0
18.9759 -22.9333 -0.0122407 0 200 0
18.9738 -22.9378 -0.0128849 0 200 0
18.9717 -22.9422 -0.0135292 0 200 0
18.9695 -22.9467 -0.0141734 0 200 0
18.9674 -22.9512 -0.0148177 0 200 0
18.9653 -22.9557 -0.0154619 0 200 0
18.9631 -22.9601 -0.0161061 0 200 0
18.961 -22.9646 -0.0167504 0 200 0
18.9589 -22.9691 -0.0173946 0 200 0
18.9567 -22.9736 -0.0180389 0 200 0
18.9546 -22.9781 -0.0186831 0 200 0
18.9525 -22.9825 -0.0193274 0 200 0
18.9503 -22.987 -0.0199716 0 200 0
18.9482 -22.9915 -0.0206159 0 200 0
18.9461 -22.996 -0.0212601 0 200 0
18.9439 -23.0004 -0.0219044 0 200 0
18.9418 -23.0049 -0.0225486 0 200 0
18.9397 -23.0094 -0.0231929 0 200 0
18.9375 -23.0139 -0.0238371 0 200 0
18.9354 -23.0183 -0.0244813 0 200 0
18.9333 -23.0228 -0.0251256 0 200 0
18.9311 -23.0273 -0.0257698 0 200 0
18.929 -23.0318 -0.0264141 0 200 0
18.9269 -23.0362 -0.0270583 0 200 0
18.9247 -23.0407 -0.0277026 0 200 0
18.9226 -23.0452 -0.0283468 0 200 0
18.9205 -23.0497 -0.0289911 0 200 0
18.9183 -23.0541 -0.0296353 0 200 0
18.9162 -23.0586 -0.0302796 0 200 0
18.9141 -23.0631 -0.0309238 0 200 0
18.9119 -23.0676 -0.0315681 0 200 0
18.9098 -23.072 -0.0322123 0 200 0
18.9076 -23.0765 -0.0328565 0 200 0
18.9055 -23.081 -0.0335008 0 200 0
18.9034 -23.0855 -0.034145 0 200 0
18.9012 -23.0899 -0.0347893 0 200 0
18.8991 -23.0944 -0.0354335 0 200 0
18.897 -23.0989 -0.0360778 0 200 0
18.8948 -23.1034 -0.036722 0 200 0
18.8927 -23.1078 -0.0373663 0 200 0
18.8906 -23.1123 -0.0380105 0 200 0
18.8884 -23.1168 -0.0386548 0 200 0
18.8863 -23.1213 -0.039299 0 200 0
18.8842 -23.1257 -0.0399432 0 200 0
18.882 -23.1302 -0.0405875 0 200 0
18.8799 -23.1347 -0.0412317 0 200 0
18.8778 -23.1392 -0.041876 0 200 0
18.8756 -23.1436 -0.0425202 0 200 0
18.8735 -23.1481 -0.0431645 0 200 0
18.8714 -23.1526 -0.0438087 0 200 0
18.8692 -23.1571 -0.044453 0 200 0
18.8671 -23.1615 -0.0450972 0 200 0
18.865 -23.166 -0.0457415 0 200 0
18.8628 -23.1705 -0.0463857 0 200 0
18.8607 -23.175 -0.04703 0 200 0
18.8586 -23.1794 -0.0476742 0 200 0
18.8564 -23.1839 -0.0483184 0 200 0
18.8543 -23.1884 -0.0489627 0 200 0
18.8522 -23.1929 -0.0496069 0 200 0
18.85 -23.1973 -0.0502512 0 200 0
18.8479 -23.2018 -0.0508954 0 200 0
18.8458 -23.2063 -0.0515397 0 200 0
18.8436 -23.2108 -0.0521839 0 200 0
18.8415 -23.2153 -0.0528282 0 200 0
18.8394 -23.2197 -0.0534724 0 200 0
18.8372 -23.2242 -0.0541167 0 200 0
18.8351 -23.2287 -0.0547609 0 200 0
18.833 -23.2332 -0.0554052 0 200 0
18.8308 -23.2376 -0.0560494 0 200 0
18.8287 -23.2421 -0.0566936 0 200 0
18.8265 -23.2466 -0.0573379 0 200 0
18.8244 -23.2511 -0.0579821 0 200 0
18.8223 -23.2555 -0.0586264 0 200 0
18.8201 -23.26 -0.0592706 0 200 0
18.818 -23.2645 -0.0599149 0 200 0
18.8159 -23.269 -0.0605591 0 200 0
18.8137 -23.2734 -0.0612034 0 200 0
18.8116 -23.2779 -0.0618476 0 200 0
18.8095 -23.2824 -0.0624919 0 200 0
18.8073 -23.2869 -0.0631361 0 200 0
18.8052 -23.2913 -0.0637803 0 200 0
18.6174 -24.6964 0 0 200 0
18.619 -24.7011 -0.00061246 0 200 0
18.6206 -24.7058 -0.00122492 0 200 0
18.6222 -24.7105 -0.00183738 0 200 0
18.6238 -24.7152 -0.00244984 0 200 0
18.6254 -24.7199 -0.0030623 0 200 0
18.6269 -24.7246 -0.00367476 0 200 0
18.6285 -24.7293 -0.00428722 0 200 0
18.6301 -24.734 -0.00489968 0 200 0
18.6317 -24.7387 -0.00551214 0 200 0
18.6333 -24.7434 -0.0061246 0 200 0
18.6349 -24.7481 -0.00673706 0 200 0
18.6365 -24.7528 -0.00734952 0 200 0
18.6381 -24.7575 -0.00796198 0 200 0
18.6396 -24.7622 -0.00857444 0 200 0
18.6412 -24.7669 -0.0091869 0 200 0
18.6428 -24.7716 -0.00979936 0 200 0
18.6444 -24.7763 -0.0104118 0 200 0
18.646 -24.781 -0.0110243 0 200 0
18.6476 -24.7857 -0.0116367 0 200 0
18.6492 -24.7904 -0.0122492 0 200 0
18.6507 -24.7951 -0.0128617 0 200 0
18.6523 -24.7998 -0.0134741 0 200 0
18.6539 -24.8045 -0.0140866 0 200 0
18.6555 -24.8092 -0.014699 0 200 0
18.6571 -24.8139 -0.0153115 0 200 0
18.6587 -24.8186 -0.015924 0 200 0
18.6603 -24.8233 -0.0165364 0 200 0
18.6618 -24.828 -0.0171489 0 200 0
18.6634 -24.8327 -0.0177613 0 200 0
18.665 -24.8374 -0.0183738 0 200 0
18.6666 -24.8421 -0.0189863 0 200 0
18.6682 -24.8468 -0.0195987 0 200 0
18.6698 -24.8515 -0.0202112 0 200 0
18.6714 -24.8562 -0.0208236 0 200 0
18.6729 -24.8609 -0.0214361 0 200 0
18.6745 -24.8657 -0.0220486 0 200 0
18.6761 -24.8704 -0.022661 0 200 0
18.6777 -24.8751 -0.0232735 0 200 0
18.6793 -24.8798 -0.023886 0 200 0
18.6809 -24.8845 -0.0244984 0 200 0
18.6825 -24.8892 -0.0251109 0 200 0
18.684 -24.8939 -0.0257233 0 200 0
18.6856 -24.8986 -0.0263358 0 200 0
18.6872 -24.9033 -0.0269483 0 200 0
18.6888 -24.908 -0.0275607 0 200 0
18.6904 -24.9127 -0.0281732 0 200 0
18.692 -24.9174 -0.0287856 0 200 0
18.6936 -24.9221 -0.0293981 0 200 0
18.6951 -24.9268 -0.0300106 0 200 0
18.6967 -24.9315 -0.030623 0 200 0
18.6983 -24.9362 -0.0312355 0 200 0
18.6999 -24.9409 -0.0318479 0 200 0
18.7015 -24.9456 -0.0324604 0 200 0
18.7031 -24.9503 -0.0330729 0 200 0
18.7047 -24.955 -0.0336853 0 200 0
18.7062 -24.9597 -0.0342978 0 200 0
18.7078 -24.9644 -0.0349102 0 200 0
18.7094 -24.9691 -0.0355227 0 200 0
18.711 -24.9738 -0.0361352 0 200 0
18.7126 -24.9785 -0.0367476 0 200 0
18.7142 -24.9832 -0.0373601 0 200 0
18.7158 -24.9879 -0.0379725 0 200 0
18.7174 -24.9926 -0.038585 0 200 0
18.7189 -24.9973 -0.0391975 0 200 0
18.7205 -25.002 -0.0398099 0 200 0
18.7221 -25.0067 -0.0404224 0 200 0
18.7237 -25.0114 -0.0410348 0 200 0
18.7253 -25.0161 -0.0416473 0 200 0
18.7269 -25.0208 -0.0422598 0 200 0
18.7285 -25.0255 -0.0428722 0 200 0
18.73 -25.0302 -0.0434847 0 200 0
18.7316 -25.0349 -0.0440971 0 200 0
18.7332 -25.0396 -0.0447096 0 200 0
18.7348 -25.0443 -0.0453221 0 200 0
18.7364 -25.049 -0.0459345 0 200 0
18.738 -25.0537 -0.046547 0 200 0
18.7396 -25.0584 -0.0471594 0 200 0
18.7411 -25.0631 -0.0477719 0 200 0
18.7427 -25.0678 -0.0483844 0 200 0
18.7443 -25.0725 -0.0489968 0 200 0
18.7459 -25.0772 -0.0496093 0 200 0
18.7475 -25.0819 -0.0502217 0 200 0
18.7491 -25.0866 -0.0508342 0 200 0
18.7507 -25.0913 -0.0514467 0 200 0
18.7522 -25.0961 -0.0520591 0 200 0
18.7538 -25.1008 -0.0526716 0 200 0
18.7554 -25.1055 -0.053284 0 200 0
18.757 -25.1102 -0.0538965 0 200 0
18.7586 -25.1149 -0.054509 0 200 0
18.7602 -25.1196 -0.0551214 0 200 0
18.7618 -25.1243 -0.0557339 0 200 0
18.7633 -25.129 -0.0563463 0 200 0
18.7649 -25.1337 -0.0569588 0 200 0
18.7665 -25.1384 -0.0575713 0 200 0
18.7681 -25.1431 -0.0581837 0 200 0
18.7697 -25.1478 -0.0587962 0 200 0
18.7713 -25.1525 -0.0594086 0 200 0
18.7729 -25.1572 -0.0600211 0 200 0
18.7744 -25.1619 -0.0606336 0 200 0
17.9775 -26.9999 0 0 200 0
17.9811 -27.0033 -0.000586688 0 200 0
17.9848 -27.0066 -0.00117338 0 200 0
17.9884 -27.01 -0.00176007 0 200 0
17.9921 -27.0134 -0.00234675 0 200 0
17.9957 -27.0167 -0.00293344 0 200 0
17.9994 -27.0201 -0.00352013 0 200 0
18.003 -27.0235 -0.00410682 0 200 0
18.0067 -27.0268 -0.00469351 0 200 0
18.0103 -27.0302 -0.0052802 0 200 0
18.0139 -27.0336 -0.00586688 0 200 0
18.0176 -27.037 -0.00645357 0 200 0
18.0212 -27.0403 -0.00704026 0 200 0
18.0249 -27.0437 -0.00762695 0 200 0
18.0285 -27.0471 -0.00821364 0 200 0
18.0322 -27.0504 -0.00880033 0 200 0
18.0358 -27.0538 -0.00938701 0 200 0
18.0395 -27.0572 -0.0099737 0 200 0
18.0431 -27.0605 -0.0105604 0 200 0
18.0468 -27.0639 -0.0111471 0 200 0
18.0504 -27.0673 -0.0117338 0 200 0
18.0541 -27.0706 -0.0123205 0 200 0
18.0577 -27.074 -0.0129071 0 200 0
18.0614 -27.0774 -0.0134938 0 200 0
18.065 -27.0807 -0.0140805 0 200 0
18.0687 -27.0841 -0.0146672 0 200 0
18.0723 -27.0875 -0.0152539 0 200 0
18.076 -27.0908 -0.0158406 0 200 0
18.0796 -27.0942 -0.0164273 0 200 0
18.0833 -27.0976 -0.017014 0 200 0
18.0869 -27.1009 -0.0176007 0 200 0
18.0906 -27.1043 -0.0181873 0 200 0
18.0942 -27.1077 -0.018774 0 200 0
18.0979 -27.1111 -0.0193607 0 200 0
18.1015 -27.1144 -0.0199474 0 200 0
18.1052 -27.1178 -0.0205341 0 200 0
18.1088 -27.1212 -0.0211208 0 200 0
18.1125 -27.1245 -0.0217075 0 200 0
18.1161 -27.1279 -0.0222942 0 200 0
18.1198 -27.1313 -0.0228808 0 200 0
18.1234 -27.1346 -0.0234675 0 200 0
18.1271 -27.138 -0.0240542 0 200 0
18.1307 -27.1414 -0.0246409 0 200 0
18.1343 -27.1447 -0.0252276 0 200 0
18.138 -27.1481 -0.0258143 0 200 0
18.1416 -27.1515 -0.026401 0 200 0
18.1453 -27.1548 -0.0269877 0 200 0
18.1489 -27.1582 -0.0275744 0 200 0
18.1526 -27.1616 -0.028161 0 200 0
18.1562 -27.1649 -0.0287477 0 200 0
18.1599 -27.1683 -0.0293344 0 200 0
18.1635 -27.1717 -0.0299211 0 200 0
18.1672 -27.175 -0.0305078 0 200 0
18.1708 -27.1784 -0.0310945 0 200 0
18.1745 -27.1818 -0.0316812 0 200 0
18.1781 -27.1852 -0.0322679 0 200 0
18.1818 -27.1885 -0.0328545 0 200 0
18.1854 -27.1919 -0.0334412 0 200 0
18.1891 -27.1953 -0.0340279 0 200 0
18.1927 -27.1986 -0.0346146 0 200 0
18.1964 -27.202 -0.0352013 0 200 0
18.2 -27.2054 -0.035788 0 200 0
18.2037 -27.2087 -0.0363747 0 200 0
18.2073 -27.2121 -0.0369614 0 200 0
18.211 -27.2155 -0.0375481 0 200 0
18.2146 -27.2188 -0.0381347 0 200 0
18.2183 -27.2222 -0.0387214 0 200 0
18.2219 -27.2256 -0.0393081 0 200 0
18.2256 -27.2289 -0.0398948 0 200 0
18.2292 -27.2323 -0.0404815 0 200 0
18.2329 -27.2357 -0.0410682 0 200 0
18.2365 -27.239 -0.0416549 0 200 0
18.2402 -27.2424 -0.0422416 0 200 0
18.2438 -27.2458 -0.0428283 0 200 0
18.2475 -27.2491 -0.0434149 0 200 0
18.2511 -27.2525 -0.0440016 0 200 0
18.2548 -27.2559 -0.0445883 0 200 0
18.2584 -27.2592 -0.045175 0 200 0
18.262 -27.2626 -0.0457617 0 200 0
18.2657 -27.266 -0.0463484 0 200 0
18.2693 -27.2694 -0.0469351 0 200 0
18.273 -27.2727 -0.0475218 0 200 0
18.2766 -27.2761 -0.0481084 0 200 0
18.2803 -27.2795 -0.0486951 0 200 0
18.2839 -27.2828 -0.0492818 0 200 0
18.2876 -27.2862 -0.0498685 0 200 0
18.2912 -27.2896 -0.0504552 0 200 0
18.2949 -27.2929 -0.0510419 0 200 0
18.2985 -27.2963 -0.0516286 0 200 0
18.3022 -27.2997 -0.0522153 0 200 0
18.3058 -27.303 -0.052802 0 200 0
18.3095 -27.3064 -0.0533886 0 200 0
18.3131 -27.3098 -0.0539753 0 200 0
18.3168 -27.3131 -0.054562 0 200 0
18.3204 -27.3165 -0.0551487 0 200 0
18.3241 -27.3199 -0.0557354 0 200 0
18.3277 -27.3232 -0.0563221 0 200 0
18.3314 -27.3266 -0.0569088 0 200 0
18.335 -27.33 -0.0574955 0 200 0
18.3387 -27.3333 -0.0580822 0 200 0
17.5941 -29.473 0 0 200 0
17.598 -29.4761 -0.000700357 0 200 0
17.6019 -29.4791 -0.00140071 0 200 0
17.6058 -29.4821 -0.00210107 0 200 0
17.6098 -29.4851 -0.00280143 0 200 0
17.6137 -29.4882 -0.00350178 0 200 0
17.6176 -29.4912 -0.00420214 0 200 0
17.6215 -29.4942 -0.0049025 0 200 0
17.6254 -29.4973 -0.00560286 0 200 0
17.6293 -29.5003 -0.00630321 0 200 0
17.6333 -29.5033 -0.00700357 0 200 0
17.6372 -29.5063 -0.00770393 0 200 0
17.6411 -29.5094 -0.00840428 0 200 0
17.645 -29.5124 -0.00910464 0 200 0
17.6489 -29.5154 -0.009805 0 200 0
17.6528 -29.5185 -0.0105054 0 200 0
17.6568 -29.5215 -0.0112057 0 200 0
17.6607 -29.5245 -0.0119061 0 200 0
17.6646 -29.5275 -0.0126064 0 200 0
17.6685 -29.5306 -0.0133068 0 200 0
17.6724 -29.5336 -0.0140071 0 200 0
17.6763 -29.5366 -0.0147075 0 200 0
17.6803 -29.5397 -0.0154079 0 200 0
17.6842 -29.5427 -0.0161082 0 200 0
17.6881 -29.5457 -0.0168086 0 200 0
17.692 -29.5487 -0.0175089 0 200 0
17.6959 -29.5518 -0.0182093 0 200 0
17.6998 -29.5548 -0.0189096 0 200 0
17.7038 -29.5578 -0.01961 0 200 0
17.7077 -29.5609 -0.0203104 0 200 0
17.7116 -29.5639 -0.0210107 0 200 0
17.7155 -29.5669 -0.0217111 0 200 0
17.7194 -29.5699 -0.0224114 0 200 0
17.7233 -29.573 -0.0231118 0 200 0
17.7273 -29.576 -0.0238121 0 200 0
17.7312 -29.579 -0.0245125 0 200 0
17.7351 -29.582 -0.0252129 0 200 0
17.739 -29.5851 -0.0259132 0 200 0
17.7429 -29.5881 -0.0266136 0 200 0
17.7468 -29.5911 -0.0273139 0 200 0
17.7508 -29.5942 -0.0280143 0 200 0
17.7547 -29.5972 -0.0287146 0 200 0
17.7586 -29.6002 -0.029415 0 200 0
17.7625 -29.6032 -0.0301153 0 200 0
17.7664 -29.6063 -0.0308157 0 200 0
17.7703 -29.6093 -0.0315161 0 200 0
17.7743 -29.6123 -0.0322164 0 200 0
17.7782 -29.6154 -0.0329168 0 200 0
17.7821 -29.6184 -0.0336171 0 200 0
17.786 -29.6214 -0.0343175 0 200 0
17.7899 -29.6244 -0.0350178 0 200 0
17.7938 -29.6275 -0.0357182 0 200 0
17.7978 -29.6305 -0.0364186 0 200 0
17.8017 -29.6335 -0.0371189 0 200 0
17.8056 -29.6366 -0.0378193 0 200 0
17.8095 -29.6396 -0.0385196 0 200 0
17.8134 -29.6426 -0.03922 0 200 0
17.8173 -29.6456 -0.0399203 0 200 0
17.8212 -29.6487 -0.0406207 0 200 0
17.8252 -29.6517 -0.0413211 0 200 0
17.8291 -29.6547 -0.0420214 0 200 0
17.833 -29.6578 -0.0427218 0 200 0
17.8369 -29.6608 -0.0434221 0 200 0
17.8408 -29.6638 -0.0441225 0 200 0
17.8447 -29.6668 -0.0448228 0 200 0
17.8487 -29.6699 -0.0455232 0 200 0
17.8526 -29.6729 -0.0462236 0 200 0
17.8565 -29.6759 -0.0469239 0 200 0
17.8604 -29.679 -0.0476243 0 200 0
17.8643 -29.682 -0.0483246 0 200 0
17.8682 -29.685 -0.049025 0 200 0
17.8722 -29.688 -0.0497253 0 200 0
17.8761 -29.6911 -0.0504257 0 200 0
17.88 -29.6941 -0.0511261 0 200 0
17.8839 -29.6971 -0.0518264 0 200 0
17.8878 -29.7002 -0.0525268 0 200 0
17.8917 -29.7032 -0.0532271 0 200 0
17.8957 -29.7062 -0.0539275 0 200 0
17.8996 -29.7092 -0.0546278 0 200 0
17.9035 -29.7123 -0.0553282 0 200 0
17.9074 -29.7153 -0.0560286 0 200 0
17.9113 -29.7183 -0.0567289 0 200 0
17.9152 -29.7213 -0.0574293 0 200 0
17.9192 -29.7244 -0.0581296 0 200 0
17.9231 -29.7274 -0.05883 0 200 0
17.927 -29.7304 -0.0595303 0 200 0
17.9309 -29.7335 -0.0602307 0 200 0
17.9348 -29.7365 -0.0609311 0 200 0
17.9387 -29.7395 -0.0616314 0 200 0
17.9427 -29.7425 -0.0623318 0 200 0
17.9466 -29.7456 -0.0630321 0 200 0
17.9505 -29.7486 -0.0637325 0 200 0
17.9544 -29.7516 -0.0644328 0 200 0
17.9583 -29.7547 -0.0651332 0 200 0
17.9622 -29.7577 -0.0658336 0 200 0
17.9662 -29.7607 -0.0665339 0 200 0
17.9701 -29.7637 -0.0672343 0 200 0
17.974 -29.7668 -0.0679346 0 200 0
17.9779 -29.7698 -0.068635 0 200 0
17.9818 -29.7728 -0.0693353 0 200 0
17.5233 -31.8141 0 0 200 0
17.5272 -31.8171 -0.000791491 0 200 0
17.5311 -31.8201 -0.00158298 0 200 0
17.535 -31.8232 -0.00237447 0 200 0
17.5389 -31.8262 -0.00316596 0 200 0
17.5427 -31.8292 -0.00395746 0 200 0
17.5466 -31.8322 -0.00474895 0 200 0
17.5505 -31.8353 -0.00554044 0 200 0
17.5544 -31.8383 -0.00633193 0 200 0
17.5583 -31.8413 -0.00712342 0 200 0
17.5622 -31.8444 -0.00791491 0 200 0
17.5661 -31.8474 -0.0087064 0 200 0
17.57 -31.8504 -0.00949789 0 200 0
17.5739 -31.8534 -0.0102894 0 200 0
17.5778 -31.8565 -0.0110809 0 200 0
17.5817 -31.8595 -0.0118724 0 200 0
17.5856 -31.8625 -0.0126639 0 200 0
17.5895 -31.8656 -0.0134553 0 200 0
17.5934 -31.8686 -0.0142468 0 200 0
17.5973 -31.8716 -0.0150383 0 200 0
17.6012 -31.8747 -0.0158298 0 200 0
17.6051 -31.8777 -0.0166213 0 200 0
17.609 -31.8807 -0.0174128 0 200 0
17.6129 -31.8837 -0.0182043 0 200 0
17.6168 -31.8868 -0.0189958 0 200 0
17.6207 -31.8898 -0.0197873 0 200 0
17.6246 -31.8928 -0.0205788 0 200 0
17.6285 -31.8959 -0.0213703 0 200 0
17.6324 -31.8989 -0.0221618 0 200 0
17.6363 -31.9019 -0.0229532 0 200 0
17.6402 -31.905 -0.0237447 0 200 0
17.6441 -31.908 -0.0245362 0 200 0
17.648 -31.911 -0.0253277 0 200 0
17.6519 -31.914 -0.0261192 0 200 0
17.6558 -31.9171 -0.0269107 0 200 0
17.6597 -31.9201 -0.0277022 0 200 0
17.6636 -31.9231 -0.0284937 0 200 0
17.6675 -31.9262 -0.0292852 0 200 0
17.6714 -31.9292 -0.0300767 0 200 0
17.6753 -31.9322 -0.0308682 0 200 0
17.6792 -31.9352 -0.0316596 0 200 0
17.6831 -31.9383 -0.0324511 0 200 0
17.687 -31.9413 -0.0332426 0 200 0
17.6909 -31.9443 -0.0340341 0 200 0
17.6948 -31.9474 -0.0348256 0 200 0
17.6987 -31.9504 -0.0356171 0 200 0
17.7026 -31.9534 -0.0364086 0 200 0
17.7065 -31.9565 -0.0372001 0 200 0
17.7104 -31.9595 -0.0379916 0 200 0
17.7143 -31.9625 -0.0387831 0 200 0
17.7182 -31.9655 -0.0395746 0 200 0
17.7221 -31.9686 -0.040366 0 200 0
17.726 -31.9716 -0.0411575 0 200 0
17.7299 -31.9746 -0.041949 0 200 0
17.7338 -31.9777 -0.0427405 0 200 0
17.7377 -31.9807 -0.043532 0 200 0
17.7416 -31.9837 -0.0443235 0 200 0
17.7454 -31.9868 -0.045115 0 200 0
17.7493 -31.9898 -0.0459065 0 200 0
17.7532 -31.9928 -0.046698 0 200 0
17.7571 -31.9958 -0.0474895 0 200 0
17.761 -31.9989 -0.048281 0 200 0
17.7649 -32.0019 -0.0490725 0 200 0
17.7688 -32.0049 -0.0498639 0 200 0
17.7727 -32.008 -0.0506554 0 200 0
17.7766 -32.011 -0.0514469 0 200 0
17.7805 -32.014 -0.0522384 0 200 0
17.7844 -32.017 -0.0530299 0 200 0
17.7883 -32.0201 -0.0538214 0 200 0
17.7922 -32.0231 -0.0546129 0 200 0
17.7961 -32.0261 -0.0554044 0 200 0
17.8 -32.0292 -0.0561959 0 200 0
17.8039 -32.0322 -0.0569874 0 200 0
17.8078 -32.0352 -0.0577789 0 200 0
17.8117 -32.0383 -0.0585703 0 200 0
17.8156 -32.0413 -0.0593618 0 200 0
17.8195 -32.0443 -0.0601533 0 200 0
17.8234 -32.0473 -0.0609448 0 200 0
17.8273 -32.0504 -0.0617363 0 200 0
17.8312 -32.0534 -0.0625278 0 200 0
17.8351 -32.0564 -0.0633193 0 200 0
17.839 -32.0595 -0.0641108 0 200 0
17.8429 -32.0625 -0.0649023 0 200 0
17.8468 -32.0655 -0.0656938 0 200 0
17.8507 -32.0686 -0.0664853 0 200 0
17.8546 -32.0716 -0.0672768 0 200 0
17.8585 -32.0746 -0.0680682 0 200 0
17.8624 -32.0776 -0.0688597 0 200 0
17.8663 -32.0807 -0.0696512 0 200 0
17.8702 -32.0837 -0.0704427 0 200 0
17.8741 -32.0867 -0.0712342 0 200 0
17.878 -32.0898 -0.0720257 0 200 0
17.8819 -32.0928 -0.0728172 0 200 0
17.8858 -32.0958 -0.0736087 0 200 0
17.8897 -32.0989 -0.0744002 0 200 0
17.8936 -32.1019 -0.0751917 0 200 0
17.8975 -32.1049 -0.0759832 0 200 0
17.9014 -32.1079 -0.0767746 0 200 0
17.9053 -32.111 -0.0775661 0 200 0
17.9092 -32.114 -0.0783576 0 200 0
17.7036 -33.9012 0 0 200 0
17.708 -33.9034 -0.000764171 0 200 0
17.7124 -33.9057 -0.00152834 0 200 0
17.7168 -33.9079 -0.00229251 0 200 0
17.7212 -33.9102 -0.00305668 0 200 0
17.7256 -33.9124 -0.00382085 0 200 0
17.73 -33.9147 -0.00458503 0 200 0
17.7344 -33.9169 -0.0053492 0 200 0
17.7388 -33.9192 -0.00611337 0 200 0
17.7432 -33.9214 -0.00687754 0 200 0
17.7476 -33.9237 -0.00764171 0 200 0
17.752 -33.9259 -0.00840588 0 200 0
17.7564 -33.9282 -0.00917005 0 200 0
17.7608 -33.9304 -0.00993422 0 200 0
17.7652 -33.9327 -0.0106984 0 200 0
17.7696 -33.9349 -0.0114626 0 200 0
17.774 -33.9372 -0.0122267 0 200 0
17.7784 -33.9394 -0.0129909 0 200 0
17.7828 -33.9417 -0.0137551 0 200 0
17.7872 -33.9439 -0.0145192 0 200 0
17.7916 -33.9461 -0.0152834 0 200 0
17.796 -33.9484 -0.0160476 0 200 0
17.8004 -33.9506 -0.0168118 0 200 0
17.8048 -33.9529 -0.0175759 0 200 0
17.8092 -33.9551 -0.0183401 0 200 0
17.8136 -33.9574 -0.0191043 0 200 0
17.818 -33.9596 -0.0198684 0 200 0
17.8224 -33.9619 -0.0206326 0 200 0
17.8268 -33.9641 -0.0213968 0 200 0
17.8312 -33.9664 -0.022161 0 200 0
17.8356 -33.9686 -0.0229251 0 200 0
17.84 -33.9709 -0.0236893 0 200 0
17.8444 -33.9731 -0.0244535 0 200 0
17.8488 -33.9754 -0.0252176 0 200 0
17.8532 -33.9776 -0.0259818 0 200 0
17.8576 -33.9799 -0.026746 0 200 0
17.862 -33.9821 -0.0275102 0 200 0
17.8664 -33.9844 -0.0282743 0 200 0
17.8708 -33.9866 -0.0290385 0 200 0
17.8752 -33.9889 -0.0298027 0 200 0
17.8796 -33.9911 -0.0305668 0 200 0
17.884 -33.9934 -0.031331 0 200 0
17.8884 -33.9956 -0.0320952 0 200 0
17.8928 -33.9979 -0.0328594 0 200 0
17.8972 -34.0001 -0.0336235 0 200 0
17.9016 -34.0024 -0.0343877 0 200 0
17.906 -34.0046 -0.0351519 0 200 0
17.9104 -34.0069 -0.035916 0 200 0
17.9148 -34.0091 -0.0366802 0 200 0
17.9192 -34.0113 -0.0374444 0 200 0
17.9236 -34.0136 -0.0382085 0 200 0
17.928 -34.0158 -0.0389727 0 200 0
17.9324 -34.0181 -0.0397369 0 200 0
17.9368 -34.0203 -0.0405011 0 200 0
17.9412 -34.0226 -0.0412652 0 200 0
17.9456 -34.0248 -0.0420294 0 200 0
17.95 -34.0271 -0.0427936 0 200 0
17.9544 -34.0293 -0.0435577 0 200 0
17.9588 -34.0316 -0.0443219 0 200 0
17.9632 -34.0338 -0.0450861 0 200 0
17.9676 -34.0361 -0.0458503 0 200 0
17.972 -34.0383 -0.0466144 0 200 0
17.9764 -34.0406 -0.0473786 0 200 0
17.9808 -34.0428 -0.0481428 0 200 0
17.9852 -34.0451 -0.0489069 0 200 0
17.9896 -34.0473 -0.0496711 0 200 0
17.994 -34.0496 -0.0504353 0 200 0
17.9984 -34.0518 -0.0511995 0 200 0
18.0028 -34.0541 -0.0519636 0 200 0
18.0072 -34.0563 -0.0527278 0 200 0
18.0116 -34.0586 -0.053492 0 200 0
18.016 -34.0608 -0.0542561 0 200 0
18.0204 -34.0631 -0.0550203 0 200 0
18.0248 -34.0653 -0.0557845 0 200 0
18.0292 -34.0676 -0.0565487 0 200 0
18.0336 -34.0698 -0.0573128 0 200 0
18.038 -34.0721 -0.058077 0 200 0
18.0424 -34.0743 -0.0588412 0 200 0
18.0468 -34.0765 -0.0596053 0 200 0
18.0512 -34.0788 -0.0603695 0 200 0
18.0556 -34.081 -0.0611337 0 200 0
18.06 -34.0833 -0.0618978 0 200 0
18.0644 -34.0855 -0.062662 0 200 0
18.0688 -34.0878 -0.0634262 0 200 0
18.0732 -34.09 -0.0641904 0 200 0
18.0776 -34.0923 -0.0649545 0 200 0
18.082 -34.0945 -0.0657187 0 200 0
18.0864 -34.0968 -0.0664829 0 200 0
18.0908 -34.099 -0.067247 0 200 0
18.0952 -34.1013 -0.0680112 0 200 0
18.0996 -34.1035 -0.0687754 0 200 0
18.104 -34.1058 -0.0695396 0 200 0
18.1084 -34.108 -0.0703037 0 200 0
18.1128 -34.1103 -0.0710679 0 200 0
18.1172 -34.1125 -0.0718321 0 200 0
18.1216 -34.1148 -0.0725962 0 200 0
18.126 -34.117 -0.0733604 0 200 0
18.1304 -34.1193 -0.0741246 0 200 0
18.1348 -34.1215 -0.0748888 0 200 0
18.1392 -34.1238 -0.0756529 0 200 0
18.0458 -35.7225 0 0 200 0
18.0505 -35.724 -0.000273617 0 200 0
18.0553 -35.7255 -0.000547235 0 200 0
18.06 -35.727 -0.000820852 0 200 0
18.0648 -35.7285 -0.00109447 0 200 0
18.0696 -35.7301 -0.00136809 0 200 0
18.0743 -35.7316 -0.0016417 0 200 0
18.0791 -35.7331 -0.00191532 0 200 0
18.0838 -35.7346 -0.00218894 0 200 0
18.0886 -35.7361 -0.00246256 0 200 0
18.0933 -35.7376 -0.00273617 0 200 0
18.0981 -35.7391 -0.00300979 0 200 0
18.1029 -35.7406 -0.00328341 0 200 0
18.1076 -35.7421 -0.00355703 0 200 0
18.1124 -35.7437 -0.00383064 0 200 0
18.1171 -35.7452 -0.00410426 0 200 0
18.1219 -35.7467 -0.00437788 0 200 0
18.1267 -35.7482 -0.00465149 0 200 0
18.1314 -35.7497 -0.00492511 0 200 0
18.1362 -35.7512 -0.00519873 0 200 0
18.1409 -35.7527 -0.00547235 0 200 0
18.1457 -35.7542 -0.00574596 0 200 0
18.1504 -35.7557 -0.00601958 0 200 0
18.1552 -35.7573 -0.0062932 0 200 0
18.16 -35.7588 -0.00656682 0 200 0
18.1647 -35.7603 -0.00684043 0 200 0
18.1695 -35.7618 -0.00711405 0 200 0
18.1742 -35.7633 -0.00738767 0 200 0
18.179 -35.7648 -0.00766129 0 200 0
18.1838 -35.7663 -0.0079349 0 200 0
18.1885 -35.7678 -0.00820852 0 200 0
18.1933 -35.7693 -0.00848214 0 200 0
18.198 -35.7709 -0.00875575 0 200 0
18.2028 -35.7724 -0.00902937 0 200 0
18.2076 -35.7739 -0.00930299 0 200 0
18.2123 -35.7754 -0.00957661 0 200 0
18.2171 -35.7769 -0.00985022 0 200 0
18.2218 -35.7784 -0.0101238 0 200 0
18.2266 -35.7799 -0.0103975 0 200 0
18.2313 -35.7814 -0.0106711 0 200 0
18.2361 -35.7829 -0.0109447 0 200 0
18.2409 -35.7845 -0.0112183 0 200 0
18.2456 -35.786 -0.0114919 0 200 0
18.2504 -35.7875 -0.0117655 0 200 0
18.2551 -35.789 -0.0120392 0 200 0
18.2599 -35.7905 -0.0123128 0 200 0
18.2647 -35.792 -0.0125864 0 200 0
18.2694 -35.7935 -0.01286 0 200 0
18.2742 -35.795 -0.0131336 0 200 0
18.2789 -35.7965 -0.0134072 0 200 0
18.2837 -35.798 -0.0136809 0 200 0
18.2884 -35.7996 -0.0139545 0 200 0
18.2932 -35.8011 -0.0142281 0 200 0
18.298 -35.8026 -0.0145017 0 200 0
18.3027 -35.8041 -0.0147753 0 200 0
18.3075 -35.8056 -0.015049 0 200 0
18.3122 -35.8071 -0.0153226 0 200 0
18.317 -35.8086 -0.0155962 0 200 0
18.3218 -35.8101 -0.0158698 0 200 0
18.3265 -35.8116 -0.0161434 0 200 0
18.3313 -35.8132 -0.016417 0 200 0
18.336 -35.8147 -0.0166907 0 200 0
18.3408 -35.8162 -0.0169643 0 200 0
18.3455 -35.8177 -0.0172379 0 200 0
18.3503 -35.8192 -0.0175115 0 200 0
18.3551 -35.8207 -0.0177851 0 200 0
18.3598 -35.8222 -0.0180587 0 200 0
18.3646 -35.8237 -0.0183324 0 200 0
18.3693 -35.8252 -0.018606 0 200 0
18.3741 -35.8268 -0.0188796 0 200 0
18.3789 -35.8283 -0.0191532 0 200 0
18.3836 -35.8298 -0.0194268 0 200 0
18.3884 -35.8313 -0.0197004 0 200 0
18.3931 -35.8328 -0.0199741 0 200 0
18.3979 -35.8343 -0.0202477 0 200 0
18.4026 -35.8358 -0.0205213 0 200 0
18.4074 -35.8373 -0.0207949 0 200 0
18.4122 -35.8388 -0.0210685 0 200 0
18.4169 -35.8404 -0.0213422 0 200 0
18.4217 -35.8419 -0.0216158 0 200 0
18.4264 -35.8434 -0.0218894 0 200 0
18.4312 -35.8449 -0.022163 0 200 0
18.436 -35.8464 -0.0224366 0 200 0
18.4407 -35.8479 -0.0227102 0 200 0
18.4455 -35.8494 -0.0229839 0 200 0
18.4502 -35.8509 -0.0232575 0 200 0
18.455 -35.8524 -0.0235311 0 200 0
18.4597 -35.8539 -0.0238047 0 200 0
18.4645 -35.8555 -0.0240783 0 200 0
18.4693 -35.857 -0.0243519 0 200 0
18.474 -35.8585 -0.0246256 0 200 0
18.4788 -35.86 -0.0248992 0 200 0
18.4835 -35.8615 -0.0251728 0 200 0
18.4883 -35.863 -0.0254464 0 200 0
18.4931 -35.8645 -0.02572 0 200 0
18.4978 -35.866 -0.0259936 0 200 0
18.5026 -35.8675 -0.0262673 0 200 0
18.5073 -35.8691 -0.0265409 0 200 0
18.5121 -35.8706 -0.0268145 0 200 0
18.5168 -35.8721 -0.0270881 0 200 0
18.5351 -37.3208 0 0 200 0
18.5398 -37.3225 -0.000196453 0 200 0
18.5445 -37.3242 -0.000392907 0 200 0
18.5492 -37.3259 -0.00058936 0 200 0
18.5539 -37.3276 -0.000785813 0 200 0
18.5586 -37.3292 -0.000982266 0 200 0
18.5633 -37.3309 -0.00117872 0 200 0
18.568 -37.3326 -0.00137517 0 200 0
18.5727 -37.3343 -0.00157163 0 200 0
18.5774 -37.336 -0.00176808 0 200 0
18.5821 -37.3376 -0.00196453 0 200 0
18.5868 -37.3393 -0.00216099 0 200 0
18.5915 -37.341 -0.00235744 0 200 0
18.5962 -37.3427 -0.00255389 0 200 0
18.6009 -37.3444 -0.00275035 0 200 0
18.6056 -37.3461 -0.0029468 0 200 0
18.6103 -37.3477 -0.00314325 0 200 0
18.615 -37.3494 -0.00333971 0 200 0
18.6197 -37.3511 -0.00353616 0 200 0
18.6244 -37.3528 -0.00373261 0 200 0
18.6292 -37.3545 -0.00392907 0 200 0
18.6339 -37.3561 -0.00412552 0 200 0
18.6386 -37.3578 -0.00432197 0 200 0
18.6433 -37.3595 -0.00451843 0 200 0
18.648 -37.3612 -0.00471488 0 200 0
18.6527 -37.3629 -0.00491133 0 200 0
18.6574 -37.3646 -0.00510779 0 200 0
18.6621 -37.3662 -0.00530424 0 200 0
18.6668 -37.3679 -0.00550069 0 200 0
18.6715 -37.3696 -0.00569714 0 200 0
18.6762 -37.3713 -0.0058936 0 200 0
18.6809 -37.373 -0.00609005 0 200 0
18.6856 -37.3746 -0.0062865 0 200 0
18.6903 -37.3763 -0.00648296 0 200 0
18.695 -37.378 -0.00667941 0 200 0
18.6997 -37.3797 -0.00687586 0 200 0
18.7044 -37.3814 -0.00707232 0 200 0
18.7091 -37.383 -0.00726877 0 200 0
18.7138 -37.3847 -0.00746522 0 200 0
18.7185 -37.3864 -0.00766168 0 200 0
18.7232 -37.3881 -0.00785813 0 200 0
18.728 -37.3898 -0.00805458 0 200 0
18.7327 -37.3915 -0.00825104 0 200 0
18.7374 -37.3931 -0.00844749 0 200 0
18.7421 -37.3948 -0.00864394 0 200 0
18.7468 -37.3965 -0.0088404 0 200 0
18.7515 -37.3982 -0.00903685 0 200 0
18.7562 -37.3999 -0.0092333 0 200 0
18.7609 -37.4015 -0.00942976 0 200 0
18.7656 -37.4032 -0.00962621 0 200 0
18.7703 -37.4049 -0.00982266 0 200 0
18.775 -37.4066 -0.0100191 0 200 0
18.7797 -37.4083 -0.0102156 0 200 0
18.7844 -37.41 -0.010412 0 200 0
18.7891 -37.4116 -0.0106085 0 200 0
18.7938 -37.4133 -0.0108049 0 200 0
18.7985 -37.415 -0.0110014 0 200 0
18.8032 -37.4167 -0.0111978 0 200 0
18.8079 -37.4184 -0.0113943 0 200 0
18.8126 -37.42 -0.0115907 0 200 0
18.8173 -37.4217 -0.0117872 0 200 0
18.822 -37.4234 -0.0119836 0 200 0
18.8267 -37.4251 -0.0121801 0 200 0
18.8315 -37.4268 -0.0123766 0 200 0
18.8362 -37.4284 -0.012573 0 200 0
18.8409 -37.4301 -0.0127695 0 200 0
18.8456 -37.4318 -0.0129659 0 200 0
18.8503 -37.4335 -0.0131624 0 200 0
18.855 -37.4352 -0.0133588 0 200 0
18.8597 -37.4369 -0.0135553 0 200 0
18.8644 -37.4385 -0.0137517 0 200 0
18.8691 -37.4402 -0.0139482 0 200 0
18.8738 -37.4419 -0.0141446 0 200 0
18.8785 -37.4436 -0.0143411 0 200 0
18.8832 -37.4453 -0.0145375 0 200 0
18.8879 -37.4469 -0.014734 0 200 0
18.8926 -37.4486 -0.0149304 0 200 0
18.8973 -37.4503 -0.0151269 0 200 0
18.902 -37.452 -0.0153234 0 200 0
18.9067 -37.4537 -0.0155198 0 200 0
18.9114 -37.4553 -0.0157163 0 200 0
18.9161 -37.457 -0.0159127 0 200 0
18.9208 -37.4587 -0.0161092 0 200 0
18.9255 -37.4604 -0.0163056 0 200 0
18.9303 -37.4621 -0.0165021 0 200 0
18.935 -37.4638 -0.0166985 0 200 0
18.9397 -37.4654 -0.016895 0 200 0
18.9444 -37.4671 -0.0170914 0 200 0
18.9491 -37.4688 -0.0172879 0 200 0
18.9538 -37.4705 -0.0174843 0 200 0
18.9585 -37.4722 -0.0176808 0 200 0
18.9632 -37.4738 -0.0178772 0 200 0
18.9679 -37.4755 -0.0180737 0 200 0
18.9726 -37.4772 -0.0182702 0 200 0
18.9773 -37.4789 -0.0184666 0 200 0
18.982 -37.4806 -0.0186631 0 200 0
18.9867 -37.4823 -0.0188595 0 200 0
18.9914 -37.4839 -0.019056 0 200 0
18.9961 -37.4856 -0.0192524 0 200 0
19.0008 -37.4873 -0.0194489 0 200 0
19.1489 -38.7593 0 0 200 0
19.1535 -38.7613 -0.0002223 0 200 0
19.1581 -38.7632 -0.000444599 0 200 0
19.1627 -38.7652 -0.000666899 0 200 0
19.1673 -38.7671 -0.000889198 0 200 0
19.1719 -38.7691 -0.0011115 0 200 0
19.1765 -38.771 -0.0013338 0 200 0
19.1811 -38.773 -0.0015561 0 200 0
19.1857 -38.775 -0.0017784 0 200 0
19.1903 -38.7769 -0.0020007 0 200 0
19.1949 -38.7789 -0.002223 0 200 0
19.1995 -38.7808 -0.00244529 0 200 0
19.2041 -38.7828 -0.00266759 0 200 0
19.2087 -38.7847 -0.00288989 0 200 0
19.2133 -38.7867 -0.00311219 0 200 0
19.2179 -38.7886 -0.00333449 0 200 0
19.2225 -38.7906 -0.00355679 0 200 0
19.2271 -38.7925 -0.00377909 0 200 0
19.2317 -38.7945 -0.00400139 0 200 0
19.2363 -38.7964 -0.00422369 0 200 0
19.2409 -38.7984 -0.00444599 0 200 0
19.2455 -38.8003 -0.00466829 0 200 0
19.2501 -38.8023 -0.00489059 0 200 0
19.2547 -38.8042 -0.00511289 0 200 0
19.2593 -38.8062 -0.00533519 0 200 0
19.2639 -38.8081 -0.00555749 0 200 0
19.2685 -38.8101 -0.00577979 0 200 0
19.2731 -38.812 -0.00600209 0 200 0
19.2777 -38.814 -0.00622439 0 200 0
19.2823 -38.8159 -0.00644669 0 200 0
19.2869 -38.8179 -0.00666899 0 200 0
19.2915 -38.8198 -0.00689129 0 200 0
19.2961 -38.8218 -0.00711359 0 200 0
19.3007 -38.8237 -0.00733588 0 200 0
19.3053 -38.8257 -0.00755818 0 200 0
19.3099 -38.8276 -0.00778048 0 200 0
19.3145 -38.8296 -0.00800278 0 200 0
19.3191 -38.8315 -0.00822508 0 200 0
19.3237 -38.8335 -0.00844738 0 200 0
19.3283 -38.8354 -0.00866968 0 200 0
19.3329 -38.8374 -0.00889198 0 200 0
19.3375 -38.8393 -0.00911428 0 200 0
19.3421 -38.8413 -0.00933658 0 200 0
19.3467 -38.8432 -0.00955888 0 200 0
19.3513 -38.8452 -0.00978118 0 200 0
19.3559 -38.8471 -0.0100035 0 200 0
19.3605 -38.8491 -0.0102258 0 200 0
19.3651 -38.851 -0.0104481 0 200 0
19.3697 -38.853 -0.0106704 0 200 0
19.3743 -38.8549 -0.0108927 0 200 0
19.3789 -38.8569 -0.011115 0 200 0
19.3835 -38.8588 -0.0113373 0 200 0
19.3881 -38.8608 -0.0115596 0 200 0
19.3927 -38.8627 -0.0117819 0 200 0
19.3973 -38.8647 -0.0120042 0 200 0
19.4019 -38.8666 -0.0122265 0 200 0
19.4065 -38.8686 -0.0124488 0 200 0
19.4111 -38.8705 -0.0126711 0 200 0
19.4157 -38.8725 -0.0128934 0 200 0
19.4203 -38.8744 -0.0131157 0 200 0
19.4249 -38.8764 -0.013338 0 200 0
19.4294 -38.8783 -0.0135603 0 200 0
19.434 -38.8803 -0.0137826 0 200 0
19.4386 -38.8822 -0.0140049 0 200 0
19.4432 -38.8842 -0.0142272 0 200 0
19.4478 -38.8861 -0.0144495 0 200 0
19.4524 -38.8881 -0.0146718 0 200 0
19.457 -38.89 -0.0148941 0 200 0
19.4616 -38.892 -0.0151164 0 200 0
19.4662 -38.8939 -0.0153387 0 200 0
19.4708 -38.8959 -0.015561 0 200 0
19.4754 -38.8978 -0.0157833 0 200 0
19.48 -38.8998 -0.0160056 0 200 0
19.4846 -38.9017 -0.0162279 0 200 0
19.4892 -38.9037 -0.0164502 0 200 0
19.4938 -38.9056 -0.0166725 0 200 0
19.4984 -38.9076 -0.0168948 0 200 0
19.503 -38.9095 -0.0171171 0 200 0
19.5076 -38.9115 -0.0173394 0 200 0
19.5122 -38.9134 -0.0175617 0 200 0
19.5168 -38.9154 -0.017784 0 200 0
19.5214 -38.9173 -0.0180063 0 200 0
19.526 -38.9193 -0.0182286 0 200 0
19.5306 -38.9212 -0.0184509 0 200 0
19.5352 -38.9232 -0.0186732 0 200 0
19.5398 -38.9251 -0.0188955 0 200 0
19.5444 -38.9271 -0.0191178 0 200 0
19.549 -38.929 -0.0193401 0 200 0
19.5536 -38.931 -0.0195624 0 200 0
19.5582 -38.9329 -0.0197847 0 200 0
19.5628 -38.9349 -0.020007 0 200 0
19.5674 -38.9368 -0.0202293 0 200 0
19.572 -38.9388 -0.0204516 0 200 0
19.5766 -38.9407 -0.0206739 0 200 0
19.5812 -38.9427 -0.0208962 0 200 0
19.5858 -38.9446 -0.0211185 0 200 0
19.5904 -38.9466 -0.0213408 0 200 0
19.595 -38.9485 -0.0215631 0 200 0
19.5996 -38.9505 -0.0217854 0 200 0
19.6042 -38.9524 -0.0220077 0 200 0
19.836 -40.1462 0 0 200 0
19.8406 -40.148 -0.000235436 0 200 0
19.8453 -40.1498 -0.000470871 0 200 0
19.85 -40.1515 -0.000706307 0 200 0
19.8546 -40.1533 -0.000941742 0 200 0
19.8593 -40.1551 -0.00117718 0 200 0
19.864 -40.1568 -0.00141261 0 200 0
19.8687 -40.1586 -0.00164805 0 200 0
19.8733 -40.1604 -0.00188348 0 200 0
19.878 -40.1621 -0.00211892 0 200 0
19.8827 -40.1639 -0.00235436 0 200 0
19.8873 -40.1657 -0.00258979 0 200 0
19.892 -40.1674 -0.00282523 0 200 0
19.8967 -40.1692 -0.00306066 0 200 0
19.9014 -40.171 -0.0032961 0 200 0
19.906 -40.1727 -0.00353153 0 200 0
19.9107 -40.1745 -0.00376697 0 200 0
19.9154 -40.1763 -0.00400241 0 200 0
19.92 -40.1781 -0.00423784 0 200 0
19.9247 -40.1798 -0.00447328 0 200 0
19.9294 -40.1816 -0.00470871 0 200 0
19.9341 -40.1834 -0.00494415 0 200 0
19.9387 -40.1851 -0.00517958 0 200 0
19.9434 -40.1869 -0.00541502 0 200 0
19.9481 -40.1887 -0.00565045 0 200 0
19.9527 -40.1904 -0.00588589 0 200 0
19.9574 -40.1922 -0.00612133 0 200 0
19.9621 -40.194 -0.00635676 0 200 0
19.9667 -40.1957 -0.0065922 0 200 0
19.9714 -40.1975 -0.00682763 0 200 0
19.9761 -40.1993 -0.00706307 0 200 0
19.9808 -40.201 -0.0072985 0 200 0
19.9854 -40.2028 -0.00753394 0 200 0
19.9901 -40.2046 -0.00776937 0 200 0
19.9948 -40.2063 -0.00800481 0 200 0
19.9994 -40.2081 -0.00824025 0 200 0
20.0041 -40.2099 -0.00847568 0 200 0
20.0088 -40.2116 -0.00871112 0 200 0
20.0135 -40.2134 -0.00894655 0 200 0
20.0181 -40.2152 -0.00918199 0 200 0
20.0228 -40.2169 -0.00941742 0 200 0
20.0275 -40.2187 -0.00965286 0 200 0
20.0321 -40.2205 -0.0098883 0 200 0
20.0368 -40.2222 -0.0101237 0 200 0
20.0415 -40.224 -0.0103592 0 200 0
20.0462 -40.2258 -0.0105946 0 200 0
20.0508 -40.2276 -0.01083 0 200 0
20.0555 -40.2293 -0.0110655 0 200 0
20.0602 -40.2311 -0.0113009 0 200 0
20.0648 -40.2329 -0.0115363 0 200 0
20.0695 -40.2346 -0.0117718 0 200 0
20.0742 -40.2364 -0.0120072 0 200 0
20.0789 -40.2382 -0.0122427 0 200 0
20.0835 -40.2399 -0.0124781 0 200 0
20.0882 -40.2417 -0.0127135 0 200 0
20.0929 -40.2435 -0.012949 0 200 0
20.0975 -40.2452 -0.0131844 0 200 0
20.1022 -40.247 -0.0134198 0 200 0
20.1069 -40.2488 -0.0136553 0 200 0
20.1116 -40.2505 -0.0138907 0 200 0
20.1162 -40.2523 -0.0141261 0 200 0
20.1209 -40.2541 -0.0143616 0 200 0
20.1256 -40.2558 -0.014597 0 200 0
20.1302 -40.2576 -0.0148324 0 200 0
20.1349 -40.2594 -0.0150679 0 200 0
20.1396 -40.2611 -0.0153033 0 200 0
20.1443 -40.2629 -0.0155387 0 200 0
20.1489 -40.2647 -0.0157742 0 200 0
20.1536 -40.2664 -0.0160096 0 200 0
20.1583 -40.2682 -0.0162451 0 200 0
20.1629 -40.27 -0.0164805 0 200 0
20.1676 -40.2718 -0.0167159 0 200 0
20.1723 -40.2735 -0.0169514 0 200 0
20.1769 -40.2753 -0.0171868 0 200 0
20.1816 -40.2771 -0.0174222 0 200 0
20.1863 -40.2788 -0.0176577 0 200 0
20.191 -40.2806 -0.0178931 0 200 0
20.1956 -40.2824 -0.0181285 0 200 0
20.2003 -40.2841 -0.018364 0 200 0
20.205 -40.2859 -0.0185994 0 200 0
20.2096 -40.2877 -0.0188348 0 200 0
20.2143 -40.2894 -0.0190703 0 200 0
20.219 -40.2912 -0.0193057 0 200 0
20.2237 -40.293 -0.0195412 0 200 0
20.2283 -40.2947 -0.0197766 0 200 0
20.233 -40.2965 -0.020012 0 200 0
20.2377 -40.2983 -0.0202475 0 200 0
20.2423 -40.3 -0.0204829 0 200 0
20.247 -40.3018 -0.0207183 0 200 0
20.2517 -40.3036 -0.0209538 0 200 0
20.2564 -40.3053 -0.0211892 0 200 0
20.261 -40.3071 -0.0214246 0 200 0
20.2657 -40.3089 -0.0216601 0 200 0
20.2704 -40.3106 -0.0218955 0 200 0
20.275 -40.3124 -0.0221309 0 200 0
20.2797 -40.3142 -0.0223664 0 200 0
20.2844 -40.3159 -0.0226018 0 200 0
20.2891 -40.3177 -0.0228373 0 200 0
20.2937 -40.3195 -0.0230727 0 200 0
20.2984 -40.3213 -0.0233081 0 200 0
20.644 -41.4713 0 0 200 0
20.6486 -41.4733 -0.000290447 0 200 0
20.6532 -41.4753 -0.000580893 0 200 0
20.6578 -41.4772 -0.00087134 0 200 0
20.6624 -41.4792 -0.00116179 0 200 0
20.667 -41.4812 -0.00145223 0 200 0
20.6715 -41.4832 -0.00174268 0 200 0
20.6761 -41.4851 -0.00203313 0 200 0
20.6807 -41.4871 -0.00232357 0 200 0
20.6853 -41.4891 -0.00261402 0 200 0
20.6899 -41.4911 -0.00290447 0 200 0
20.6945 -41.493 -0.00319491 0 200 0
20.699 -41.495 -0.00348536 0 200 0
20.7036 -41.497 -0.00377581 0 200 0
20.7082 -41.499 -0.00406625 0 200 0
20.7128 -41.5009 -0.0043567 0 200 0
20.7174 -41.5029 -0.00464715 0 200 0
20.722 -41.5049 -0.00493759 0 200 0
20.7265 -41.5069 -0.00522804 0 200 0
20.7311 -41.5088 -0.00551849 0 200 0
20.7357 -41.5108 -0.00580893 0 200 0
20.7403 -41.5128 -0.00609938 0 200 0
20.7449 -41.5148 -0.00638983 0 200 0
20.7495 -41.5167 -0.00668027 0 200 0
20.754 -41.5187 -0.00697072 0 200 0
20.7586 -41.5207 -0.00726117 0 200 0
20.7632 -41.5227 -0.00755161 0 200 0
20.7678 -41.5246 -0.00784206 0 200 0
20.7724 -41.5266 -0.00813251 0 200 0
20.777 -41.5286 -0.00842295 0 200 0
20.7816 -41.5306 -0.0087134 0 200 0
20.7861 -41.5325 -0.00900385 0 200 0
20.7907 -41.5345 -0.00929429 0 200 0
20.7953 -41.5365 -0.00958474 0 200 0
20.7999 -41.5385 -0.00987519 0 200 0
20.8045 -41.5404 -0.0101656 0 200 0
20.8091 -41.5424 -0.0104561 0 200 0
20.8136 -41.5444 -0.0107465 0 200 0
20.8182 -41.5464 -0.011037 0 200 0
20.8228 -41.5483 -0.0113274 0 200 0
20.8274 -41.5503 -0.0116179 0 200 0
20.832 -41.5523 -0.0119083 0 200 0
20.8366 -41.5543 -0.0121988 0 200 0
20.8411 -41.5562 -0.0124892 0 200 0
20.8457 -41.5582 -0.0127797 0 200 0
20.8503 -41.5602 -0.0130701 0 200 0
20.8549 -41.5622 -0.0133605 0 200 0
20.8595 -41.5641 -0.013651 0 200 0
20.8641 -41.5661 -0.0139414 0 200 0
20.8687 -41.5681 -0.0142319 0 200 0
20.8732 -41.5701 -0.0145223 0 200 0
20.8778 -41.572 -0.0148128 0 200 0
20.8824 -41.574 -0.0151032 0 200 0
20.887 -41.576 -0.0153937 0 200 0
20.8916 -41.578 -0.0156841 0 200 0
20.8962 -41.5799 -0.0159746 0 200 0
20.9007 -41.5819 -0.016265 0 200 0
20.9053 -41.5839 -0.0165555 0 200 0
20.9099 -41.5859 -0.0168459 0 200 0
20.9145 -41.5878 -0.0171364 0 200 0
20.9191 -41.5898 -0.0174268 0 200 0
20.9237 -41.5918 -0.0177172 0 200 0
20.9282 -41.5938 -0.0180077 0 200 0
20.9328 -41.5957 -0.0182981 0 200 0
20.9374 -41.5977 -0.0185886 0 200 0
20.942 -41.5997 -0.018879 0 200 0
20.9466 -41.6017 -0.0191695 0 200 0
20.9512 -41.6036 -0.0194599 0 200 0
20.9558 -41.6056 -0.0197504 0 200 0
20.9603 -41.6076 -0.0200408 0 200 0
20.9649 -41.6096 -0.0203313 0 200 0
20.9695 -41.6115 -0.0206217 0 200 0
20.9741 -41.6135 -0.0209122 0 200 0
20.9787 -41.6155 -0.0212026 0 200 0
20.9833 -41.6175 -0.0214931 0 200 0
20.9878 -41.6194 -0.0217835 0 200 0
20.9924 -41.6214 -0.022074 0 200 0
20.997 -41.6234 -0.0223644 0 200 0
21.0016 -41.6254 -0.0226548 0 200 0
21.0062 -41.6273 -0.0229453 0 200 0
21.0108 -41.6293 -0.0232357 0 200 0
21.0153 -41.6313 -0.0235262 0 200 0
21.0199 -41.6333 -0.0238166 0 200 0
21.0245 -41.6353 -0.0241071 0 200 0
21.0291 -41.6372 -0.0243975 0 200 0
21.0337 -41.6392 -0.024688 0 200 0
21.0383 -41.6412 -0.0249784 0 200 0
21.0429 -41.6432 -0.0252689 0 200 0
21.0474 -41.6451 -0.0255593 0 200 0
21.052 -41.6471 -0.0258498 0 200 0
21.0566 -41.6491 -0.0261402 0 200 0
21.0612 -41.6511 -0.0264307 0 200 0
21.0658 -41.653 -0.0267211 0 200 0
21.0704 -41.655 -0.0270115 0 200 0
21.0749 -41.657 -0.027302 0 200 0
21.0795 -41.659 -0.0275924 0 200 0
21.0841 -41.6609 -0.0278829 0 200 0
21.0887 -41.6629 -0.0281733 0 200 0
21.0933 -41.6649 -0.0284638 0 200 0
21.0979 -41.6669 -0.0287542 0 200 0
21.5185 -42.7109 0 0 200 0
21.5232 -42.7127 -0.00034493 0 200 0
21.5279 -42.7145 -0.00068986 0 200 0
21.5325 -42.7163 -0.00103479 0 200 0
21.5372 -42.7181 -0.00137972 0 200 0
21.5418 -42.7199 -0.00172465 0 200 0
21.5465 -42.7216 -0.00206958 0 200 0
21.5511 -42.7234 -0.00241451 0 200 0
21.5558 -42.7252 -0.00275944 0 200 0
21.5605 -42.727 -0.00310437 0 200 0
21.5651 -42.7288 -0.0034493 0 200 0
21.5698 -42.7306 -0.00379423 0 200 0
21.5744 -42.7324 -0.00413916 0 200 0
21.5791 -42.7341 -0.00448409 0 200 0
21.5838 -42.7359 -0.00482902 0 200 0
21.5884 -42.7377 -0.00517395 0 200 0
21.5931 -42.7395 -0.00551888 0 200 0
21.5977 -42.7413 -0.00586381 0 200 0
21.6024 -42.7431 -0.00620874 0 200 0
21.607 -42.7448 -0.00655367 0 200 0
21.6117 -42.7466 -0.0068986 0 200 0
21.6164 -42.7484 -0.00724353 0 200 0
21.621 -42.7502 -0.00758846 0 200 0
21.6257 -42.752 -0.00793339 0 200 0
21.6303 -42.7538 -0.00827832 0 200 0
21.635 -42.7555 -0.00862325 0 200 0
21.6396 -42.7573 -0.00896818 0 200 0
21.6443 -42.7591 -0.00931311 0 200 0
21.649 -42.7609 -0.00965804 0 200 0
21.6536 -42.7627 -0.010003 0 200 0
21.6583 -42.7645 -0.0103479 0 200 0
21.6629 -42.7663 -0.0106928 0 200 0
21.6676 -42.768 -0.0110378 0 200 0
21.6723 -42.7698 -0.0113827 0 200 0
21.6769 -42.7716 -0.0117276 0 200 0
21.6816 -42.7734 -0.0120725 0 200 0
21.6862 -42.7752 -0.0124175 0 200 0
21.6909 -42.777 -0.0127624 0 200 0
21.6955 -42.7787 -0.0131073 0 200 0
21.7002 -42.7805 -0.0134523 0 200 0
21.7049 -42.7823 -0.0137972 0 200 0
21.7095 -42.7841 -0.0141421 0 200 0
21.7142 -42.7859 -0.0144871 0 200 0
21.7188 -42.7877 -0.014832 0 200 0
21.7235 -42.7894 -0.0151769 0 200 0
21.7282 -42.7912 -0.0155218 0 200 0
21.7328 -42.793 -0.0158668 0 200 0
21.7375 -42.7948 -0.0162117 0 200 0
21.7421 -42.7966 -0.0165566 0 200 0
21.7468 -42.7984 -0.0169016 0 200 0
21.7514 -42.8001 -0.0172465 0 200 0
21.7561 -42.8019 -0.0175914 0 200 0
21.7608 -42.8037 -0.0179364 0 200 0
21.7654 -42.8055 -0.0182813 0 200 0
21.7701 -42.8073 -0.0186262 0 200 0
21.7747 -42.8091 -0.0189711 0 200 0
21.7794 -42.8109 -0.0193161 0 200 0
21.784 -42.8126 -0.019661 0 200 0
21.7887 -42.8144 -0.0200059 0 200 0
21.7934 -42.8162 -0.0203509 0 200 0
21.798 -42.818 -0.0206958 0 200 0
21.8027 -42.8198 -0.0210407 0 200 0
21.8073 -42.8216 -0.0213857 0 200 0
21.812 -42.8233 -0.0217306 0 200 0
21.8167 -42.8251 -0.0220755 0 200 0
21.8213 -42.8269 -0.0224204 0 200 0
21.826 -42.8287 -0.0227654 0 200 0
21.8306 -42.8305 -0.0231103 0 200 0
21.8353 -42.8323 -0.0234552 0 200 0
21.8399 -42.834 -0.0238002 0 200 0
21.8446 -42.8358 -0.0241451 0 200 0
21.8493 -42.8376 -0.02449 0 200 0
21.8539 -42.8394 -0.024835 0 200 0
21.8586 -42.8412 -0.0251799 0 200 0
21.8632 -42.843 -0.0255248 0 200 0
21.8679 -42.8448 -0.0258697 0 200 0
21.8726 -42.8465 -0.0262147 0 200 0
21.8772 -42.8483 -0.0265596 0 200 0
21.8819 -42.8501 -0.0269045 0 200 0
21.8865 -42.8519 -0.0272495 0 200 0
21.8912 -42.8537 -0.0275944 0 200 0
21.8958 -42.8555 -0.0279393 0 200 0
21.9005 -42.8572 -0.0282843 0 200 0
21.9052 -42.859 -0.0286292 0 200 0
21.9098 -42.8608 -0.0289741 0 200 0
21.9145 -42.8626 -0.029319 0 200 0
21.9191 -42.8644 -0.029664 0 200 0
21.9238 -42.8662 -0.0300089 0 200 0
21.9285 -42.8679 -0.0303538 0 200 0
21.9331 -42.8697 -0.0306988 0 200 0
21.9378 -42.8715 -0.0310437 0 200 0
21.9424 -42.8733 -0.0313886 0 200 0
21.9471 -42.8751 -0.0317336 0 200 0
21.9517 -42.8769 -0.0320785 0 200 0
21.9564 -42.8787 -0.0324234 0 200 0
21.9611 -42.8804 -0.0327683 0 200 0
21.9657 -42.8822 -0.0331133 0 200 0
21.9704 -42.884 -0.0334582 0 200 0
21.975 -42.8858 -0.0338031 0 200 0
21.9797 -42.8876 -0.0341481 0 200 0
22.4406 -43.9352 0 0 200 0
22.4451 -43.9373 -0.000598864 0 200 0
22.4496 -43.9395 -0.00119773 0 200 0
22.4541 -43.9416 -0.00179659 0 200 0
22.4586 -43.9437 -0.00239546 0 200 0
22.4631 -43.9459 -0.00299432 0 200 0
22.4675 -43.948 -0.00359319 0 200 0
22.472 -43.9501 -0.00419205 0 200 0
22.4765 -43.9523 -0.00479092 0 200 0
22.481 -43.9544 -0.00538978 0 200 0
22.4855 -43.9566 -0.00598864 0 200 0
22.4899 -43.9587 -0.00658751 0 200 0
22.4944 -43.9608 -0.00718637 0 200 0
22.4989 -43.963 -0.00778524 0 200 0
22.5034 -43.9651 -0.0083841 0 200 0
22.5079 -43.9672 -0.00898297 0 200 0
22.5124 -43.9694 -0.00958183 0 200 0
22.5168 -43.9715 -0.0101807 0 200 0
22.5213 -43.9736 -0.0107796 0 200 0
22.5258 -43.9758 -0.0113784 0 200 0
22.5303 -43.9779 -0.0119773 0 200 0
22.5348 -43.98 -0.0125762 0 200 0
22.5392 -43.9822 -0.013175 0 200 0
22.5437 -43.9843 -0.0137739 0 200 0
22.5482 -43.9864 -0.0143727 0 200 0
22.5527 -43.9886 -0.0149716 0 200 0
22.5572 -43.9907 -0.0155705 0 200 0
22.5616 -43.9928 -0.0161693 0 200 0
22.5661 -43.995 -0.0167682 0 200 0
22.5706 -43.9971 -0.0173671 0 200 0
22.5751 -43.9993 -0.0179659 0 200 0
22.5796 -44.0014 -0.0185648 0 200 0
22.5841 -44.0035 -0.0191637 0 200 0
22.5885 -44.0057 -0.0197625 0 200 0
22.593 -44.0078 -0.0203614 0 200 0
22.5975 -44.0099 -0.0209603 0 200 0
22.602 -44.0121 -0.0215591 0 200 0
22.6065 -44.0142 -0.022158 0 200 0
22.6109 -44.0163 -0.0227569 0 200 0
22.6154 -44.0185 -0.0233557 0 200 0
22.6199 -44.0206 -0.0239546 0 200 0
22.6244 -44.0227 -0.0245534 0 200 0
22.6289 -44.0249 -0.0251523 0 200 0
22.6333 -44.027 -0.0257512 0 200 0
22.6378 -44.0291 -0.02635 0 200 0
22.6423 -44.0313 -0.0269489 0 200 0
22.6468 -44.0334 -0.0275478 0 200 0
22.6513 -44.0356 -0.0281466 0 200 0
22.6558 -44.0377 -0.0287455 0 200 0
22.6602 -44.0398 -0.0293444 0 200 0
22.6647 -44.042 -0.0299432 0 200 0
22.6692 -44.0441 -0.0305421 0 200 0
22.6737 -44.0462 -0.031141 0 200 0
22.6782 -44.0484 -0.0317398 0 200 0
22.6826 -44.0505 -0.0323387 0 200 0
22.6871 -44.0526 -0.0329375 0 200 0
22.6916 -44.0548 -0.0335364 0 200 0
22.6961 -44.0569 -0.0341353 0 200 0
22.7006 -44.059 -0.0347341 0 200 0
22.705 -44.0612 -0.035333 0 200 0
22.7095 -44.0633 -0.0359319 0 200 0
22.714 -44.0654 -0.0365307 0 200 0
22.7185 -44.0676 -0.0371296 0 200 0
22.723 -44.0697 -0.0377285 0 200 0
22.7275 -44.0718 -0.0383273 0 200 0
22.7319 -44.074 -0.0389262 0 200 0
22.7364 -44.0761 -0.0395251 0 200 0
22.7409 -44.0783 -0.0401239 0 200 0
22.7454 -44.0804 -0.0407228 0 200 0
22.7499 -44.0825 -0.0413216 0 200 0
22.7543 -44.0847 -0.0419205 0 200 0
22.7588 -44.0868 -0.0425194 0 200 0
22.7633 -44.0889 -0.0431182 0 200 0
22.7678 -44.0911 -0.0437171 0 200 0
22.7723 -44.0932 -0.044316 0 200 0
22.7768 -44.0953 -0.0449148 0 200 0
22.7812 -44.0975 -0.0455137 0 200 0
22.7857 -44.0996 -0.0461126 0 200 0
22.7902 -44.1017 -0.0467114 0 200 0
22.7947 -44.1039 -0.0473103 0 200 0
22.7992 -44.106 -0.0479092 0 200 0
22.8036 -44.1082 -0.048508 0 200 0
22.8081 -44.1103 -0.0491069 0 200 0
22.8126 -44.1124 -0.0497058 0 200 0
22.8171 -44.1146 -0.0503046 0 200 0
22.8216 -44.1167 -0.0509035 0 200 0
22.826 -44.1188 -0.0515023 0 200 0
22.8305 -44.121 -0.0521012 0 200 0
22.835 -44.1231 -0.0527001 0 200 0
22.8395 -44.1252 -0.0532989 0 200 0
22.844 -44.1274 -0.0538978 0 200 0
22.8485 -44.1295 -0.0544967 0 200 0
22.8529 -44.1316 -0.0550955 0 200 0
22.8574 -44.1338 -0.0556944 0 200 0
22.8619 -44.1359 -0.0562933 0 200 0
22.8664 -44.138 -0.0568921 0 200 0
22.8709 -44.1402 -0.057491 0 200 0
22.8753 -44.1423 -0.0580899 0 200 0
22.8798 -44.1444 -0.0586887 0 200 0
22.8843 -44.1466 -0.0592876 0 200 0
23.4271 -45.082 0 0 200 0
23.4311 -45.0849 -0.000589254 0 200 0
23.4351 -45.0878 -0.00117851 0 200 0
23.4391 -45.0908 -0.00176776 0 200 0
23.4431 -45.0937 -0.00235701 0 200 0
23.4471 -45.0966 -0.00294627 0 200 0
