ply
format ascii 1.0
element vertex 1417
property float x
property float y
property float z
property uchar red
property uchar green
property uchar blue
element face 0
property list uchar int vertex_indices
end_header
-34.8319 -21.9427 3.84823 255 0 0
-34.7568 -21.7417 4.04321 0 255 0
-34.9999 -21.7099 3.88852 0 0 255
-34.8326 -21.9476 3.84835 255 0 0
-34.7557 -21.7418 4.04809 0 255 0
-35.0047 -21.7092 3.88962 0 0 255
-34.8333 -21.9526 3.84847 255 0 0
-34.7546 -21.7418 4.05296 0 255 0
-35.0095 -21.7084 3.89073 0 0 255
-34.834 -21.9575 3.84859 255 0 0
-34.7535 -21.7418 4.05784 0 255 0
-35.0144 -21.7077 3.89183 0 0 255
-34.8348 -21.9625 3.84871 255 0 0
-34.7523 -21.7419 4.06271 0 255 0
-35.0192 -21.707 3.89293 0 0 255
-34.8355 -21.9674 3.84883 255 0 0
-34.7512 -21.7419 4.06759 0 255 0
-35.024 -21.7062 3.89403 0 0 255
-34.8362 -21.9724 3.84895 255 0 0
-34.7501 -21.742 4.07246 0 255 0
-35.0288 -21.7055 3.89514 0 0 255
-34.8369 -21.9773 3.84907 255 0 0
-34.749 -21.742 4.07734 0 255 0
-35.0337 -21.7048 3.89624 0 0 255
-34.8377 -21.9823 3.84919 255 0 0
-34.7479 -21.7421 4.08221 0 255 0
-35.0385 -21.7041 3.89734 0 0 255
-34.8384 -21.9872 3.84931 255 0 0
-34.7468 -21.7421 4.08709 0 255 0
-35.0433 -21.7033 3.89844 0 0 255
-34.8391 -21.9922 3.84943 255 0 0
-34.7457 -21.7422 4.09197 0 255 0
-35.0481 -21.7026 3.89955 0 0 255
-34.8398 -21.9971 3.84955 255 0 0
-34.7446 -21.7422 4.09684 0 255 0
-35.0529 -21.7019 3.90065 0 0 255
-34.8406 -22.0021 3.84967 255 0 0
-34.7435 -21.7422 4.10172 0 255 0
-35.0578 -21.7011 3.90175 0 0 255
-34.8413 -22.007 3.84979 255 0 0
-34.7424 -21.7423 4.10659 0 255 0
-35.0626 -21.7004 3.90285 0 0 255
-34.842 -22.0119 3.84991 255 0 0
-34.7413 -21.7423 4.11147 0 255 0
-35.0674 -21.6997 3.90396 0 0 255
-34.8427 -22.0169 3.85003 255 0 0
-34.7402 -21.7424 4.11634 0 255 0
-35.0722 -21.6989 3.90506 0 0 255
-34.8434 -22.0218 3.85015 255 0 0
-34.739 -21.7424 4.12122 0 255 0
-35.077 -21.6982 3.90616 0 0 255
-34.8442 -22.0268 3.85027 255 0 0
-34.7379 -21.7425 4.12609 0 255 0
-35.0819 -21.6975 3.90726 0 0 255
-34.8449 -22.0317 3.85039 255 0 0
-34.7368 -21.7425 4.13097 0 255 0
-35.0867 -21.6967 3.90837 0 0 255
-34.8456 -22.0367 3.85051 255 0 0
-34.7357 -21.7425 4.13585 0 255 0
-35.0915 -21.696 3.90947 0 0 255
-34.8463 -22.0416 3.85063 255 0 0
-34.7346 -21.7426 4.14072 0 255 0
-35.0963 -21.6953 3.91057 0 0 255
-34.8471 -22.0466 3.85075 255 0 0
-34.7335 -21.7426 4.1456 0 255 0
-35.1012 -21.6945 3.91167 0 0 255
-34.8478 -22.0515 3.85087 255 0 0
-34.7324 -21.7427 4.15047 0 255 0
-35.106 -21.6938 3.91278 0 0 255
-34.8485 -22.0565 3.85099 255 0 0
-34.7313 -21.7427 4.15535 0 255 0
-35.1108 -21.6931 3.91388 0 0 255
-34.8492 -22.0614 3.85111 255 0 0
-34.7302 -21.7428 4.16022 0 255 0
-35.1156 -21.6923 3.91498 0 0 255
-34.85 -22.0664 3.85123 255 0 0
-34.7291 -21.7428 4.1651 0 255 0
-35.1204 -21.6916 3.91608 0 0 255
-34.8507 -22.0713 3.85135 255 0 0
-34.728 -21.7429 4.16997 0 255 0
-35.1253 -21.6909 3.91719 0 0 255
-34.8514 -22.0762 3.85147 255 0 0
-34.7269 -21.7429 4.17485 0 255 0
-35.1301 -21.6901 3.91829 0 0 255
-34.8521 -22.0812 3.85159 255 0 0
-34.7257 -21.7429 4.17972 0 255 0
-35.1349 -21.6894 3.91939 0 0 255
-34.8528 -22.0861 3.85171 255 0 0
-34.7246 -21.743 4.1846 0 255 0
-35.1397 -21.6887 3.92049 0 0 255
-34.8536 -22.0911 3.85183 255 0 0
-34.7235 -21.743 4.18948 0 255 0
-35.1446 -21.688 3.9216 0 0 255
-34.8543 -22.096 3.85195 255 0 0
-34.7224 -21.7431 4.19435 0 255 0
-35.1494 -21.6872 3.9227 0 0 255
-34.855 -22.101 3.85207 255 0 0
-34.7213 -21.7431 4.19923 0 255 0
-35.1542 -21.6865 3.9238 0 0 255
-34.8557 -22.1059 3.85219 255 0 0
-34.7202 -21.7432 4.2041 0 255 0
-35.159 -21.6858 3.9249 0 0 255
-34.8565 -22.1109 3.85231 255 0 0
-34.7191 -21.7432 4.20898 0 255 0
-35.1638 -21.685 3.92601 0 0 255
-34.8572 -22.1158 3.85243 255 0 0
-34.718 -21.7433 4.21385 0 255 0
-35.1687 -21.6843 3.92711 0 0 255
-34.8579 -22.1208 3.85255 255 0 0
-34.7169 -21.7433 4.21873 0 255 0
-35.1735 -21.6836 3.92821 0 0 255
-34.8586 -22.1257 3.85267 255 0 0
-34.7158 -21.7433 4.2236 0 255 0
-35.1783 -21.6828 3.92931 0 0 255
-34.8594 -22.1306 3.85279 255 0 0
-34.7147 -21.7434 4.22848 0 255 0
-35.1831 -21.6821 3.93042 0 0 255
-34.8601 -22.1356 3.85291 255 0 0
-34.7136 -21.7434 4.23335 0 255 0
-35.188 -21.6814 3.93152 0 0 255
-34.8608 -22.1405 3.85303 255 0 0
-34.7125 -21.7435 4.23823 0 255 0
-35.1928 -21.6806 3.93262 0 0 255
-34.8615 -22.1455 3.85315 255 0 0
-34.7113 -21.7435 4.2431 0 255 0
-35.1976 -21.6799 3.93372 0 0 255
-34.8623 -22.1504 3.85327 255 0 0
-34.7102 -21.7436 4.24798 0 255 0
-35.2024 -21.6792 3.93483 0 0 255
-34.863 -22.1554 3.85339 255 0 0
-34.7091 -21.7436 4.25286 0 255 0
-35.2072 -21.6784 3.93593 0 0 255
-34.8637 -22.1603 3.85351 255 0 0
-34.708 -21.7436 4.25773 0 255 0
-35.2121 -21.6777 3.93703 0 0 255
-34.8644 -22.1653 3.85363 255 0 0
-34.7069 -21.7437 4.26261 0 255 0
-35.2169 -21.677 3.93813 0 0 255
-34.8651 -22.1702 3.85375 255 0 0
-34.7058 -21.7437 4.26748 0 255 0
-35.2217 -21.6762 3.93924 0 0 255
-34.8659 -22.1752 3.85387 255 0 0
-34.7047 -21.7438 4.27236 0 255 0
-35.2265 -21.6755 3.94034 0 0 255
-34.8666 -22.1801 3.85399 255 0 0
-34.7036 -21.7438 4.27723 0 255 0
-35.2313 -21.6748 3.94144 0 0 255
-34.8673 -22.1851 3.85411 255 0 0
-34.7025 -21.7439 4.28211 0 255 0
-35.2362 -21.674 3.94254 0 0 255
-34.868 -22.19 3.85423 255 0 0
-34.7014 -21.7439 4.28698 0 255 0
-35.241 -21.6733 3.94365 0 0 255
-34.8688 -22.1949 3.85435 255 0 0
-34.7003 -21.744 4.29186 0 255 0
-35.2458 -21.6726 3.94475 0 0 255
-34.8695 -22.1999 3.85447 255 0 0
-34.6992 -21.744 4.29673 0 255 0
-35.2506 -21.6718 3.94585 0 0 255
-34.8702 -22.2048 3.85459 255 0 0
-34.698 -21.744 4.30161 0 255 0
-35.2555 -21.6711 3.94695 0 0 255
-34.8709 -22.2098 3.85471 255 0 0
-34.6969 -21.7441 4.30649 0 255 0
-35.2603 -21.6704 3.94806 0 0 255
-34.8717 -22.2147 3.85483 255 0 0
-34.6958 -21.7441 4.31136 0 255 0
-35.2651 -21.6697 3.94916 0 0 255
-34.8724 -22.2197 3.85495 255 0 0
-34.6947 -21.7442 4.31624 0 255 0
-35.2699 -21.6689 3.95026 0 0 255
-34.8731 -22.2246 3.85507 255 0 0
-34.6936 -21.7442 4.32111 0 255 0
-35.2747 -21.6682 3.95136 0 0 255
-34.8738 -22.2296 3.85519 255 0 0
-34.6925 -21.7443 4.32599 0 255 0
-35.2796 -21.6675 3.95247 0 0 255
-35.1219 -22.1251 3.92927 255 0 0
-35.1219 -22.1251 3.92927 0 255 0
-35.1219 -22.1251 3.92927 0 0 255
-35.1213 -22.1301 3.92979 255 0 0
-35.121 -22.1245 3.93413 0 255 0
-35.1268 -22.1256 3.93031 0 0 255
-35.1207 -22.135 3.93032 255 0 0
-35.12 -22.1239 3.93899 0 255 0
-35.1317 -22.1261 3.93135 0 0 255
-35.1201 -22.1399 3.93084 255 0 0
-35.119 -22.1232 3.94386 0 255 0
-35.1365 -22.1266 3.93239 0 0 255
-35.1195 -22.1449 3.93136 255 0 0
-35.118 -22.1226 3.94872 0 255 0
-35.1414 -22.1271 3.93343 0 0 255
-35.1188 -22.1498 3.93189 255 0 0
-35.1171 -22.1219 3.95358 0 255 0
-35.1463 -22.1276 3.93447 0 0 255
-35.1182 -22.1547 3.93241 255 0 0
-35.1161 -22.1213 3.95844 0 255 0
-35.1511 -22.1281 3.93551 0 0 255
-35.1176 -22.1597 3.93293 255 0 0
-35.1151 -22.1207 3.96331 0 255 0
-35.156 -22.1286 3.93655 0 0 255
-35.117 -22.1646 3.93346 255 0 0
-35.1141 -22.12 3.96817 0 255 0
-35.1609 -22.1291 3.93759 0 0 255
-35.1164 -22.1695 3.93398 255 0 0
-35.1132 -22.1194 3.97303 0 255 0
-35.1657 -22.1296 3.93864 0 0 255
-35.1157 -22.1745 3.9345 255 0 0
-35.1122 -22.1187 3.97789 0 255 0
-35.1706 -22.1301 3.93968 0 0 255
-35.1151 -22.1794 3.93503 255 0 0
-35.1112 -22.1181 3.98276 0 255 0
-35.1755 -22.1306 3.94072 0 0 255
-35.1145 -22.1843 3.93555 255 0 0
-35.1103 -22.1175 3.98762 0 255 0
-35.1803 -22.1311 3.94176 0 0 255
-35.1139 -22.1893 3.93607 255 0 0
-35.1093 -22.1168 3.99248 0 255 0
-35.1852 -22.1316 3.9428 0 0 255
-35.1133 -22.1942 3.9366 255 0 0
-35.1083 -22.1162 3.99734 0 255 0
-35.1901 -22.1321 3.94384 0 0 255
-35.1126 -22.1991 3.93712 255 0 0
-35.1073 -22.1156 4.0022 0 255 0
-35.1949 -22.1326 3.94488 0 0 255
-35.112 -22.2041 3.93765 255 0 0
-35.1064 -22.1149 4.00707 0 255 0
-35.1998 -22.1331 3.94592 0 0 255
-35.1114 -22.209 3.93817 255 0 0
-35.1054 -22.1143 4.01193 0 255 0
-35.2046 -22.1336 3.94696 0 0 255
-35.1108 -22.2139 3.93869 255 0 0
-35.1044 -22.1136 4.01679 0 255 0
-35.2095 -22.1341 3.948 0 0 255
-35.1102 -22.2189 3.93922 255 0 0
-35.1034 -22.113 4.02165 0 255 0
-35.2144 -22.1346 3.94904 0 0 255
-35.1095 -22.2238 3.93974 255 0 0
-35.1025 -22.1124 4.02652 0 255 0
-35.2192 -22.1351 3.95008 0 0 255
-35.1089 -22.2287 3.94026 255 0 0
-35.1015 -22.1117 4.03138 0 255 0
-35.2241 -22.1356 3.95112 0 0 255
-35.1083 -22.2337 3.94079 255 0 0
-35.1005 -22.1111 4.03624 0 255 0
-35.229 -22.1362 3.95216 0 0 255
-35.1077 -22.2386 3.94131 255 0 0
-35.0995 -22.1104 4.0411 0 255 0
-35.2338 -22.1367 3.9532 0 0 255
-35.1071 -22.2435 3.94183 255 0 0
-35.0986 -22.1098 4.04597 0 255 0
-35.2387 -22.1372 3.95425 0 0 255
-35.1064 -22.2485 3.94236 255 0 0
-35.0976 -22.1092 4.05083 0 255 0
-35.2436 -22.1377 3.95529 0 0 255
-35.1058 -22.2534 3.94288 255 0 0
-35.0966 -22.1085 4.05569 0 255 0
-35.2484 -22.1382 3.95633 0 0 255
-35.1052 -22.2583 3.9434 255 0 0
-35.0956 -22.1079 4.06055 0 255 0
-35.2533 -22.1387 3.95737 0 0 255
-35.1046 -22.2633 3.94393 255 0 0
-35.0947 -22.1073 4.06542 0 255 0
-35.2582 -22.1392 3.95841 0 0 255
-35.104 -22.2682 3.94445 255 0 0
-35.0937 -22.1066 4.07028 0 255 0
-35.263 -22.1397 3.95945 0 0 255
-35.1033 -22.2731 3.94498 255 0 0
-35.0927 -22.106 4.07514 0 255 0
-35.2679 -22.1402 3.96049 0 0 255
-35.1027 -22.2781 3.9455 255 0 0
-35.0917 -22.1053 4.08 0 255 0
-35.2728 -22.1407 3.96153 0 0 255
-35.1021 -22.283 3.94602 255 0 0
-35.0908 -22.1047 4.08487 0 255 0
-35.2776 -22.1412 3.96257 0 0 255
-35.1015 -22.2879 3.94655 255 0 0
-35.0898 -22.1041 4.08973 0 255 0
-35.2825 -22.1417 3.96361 0 0 255
-35.1009 -22.2929 3.94707 255 0 0
-35.0888 -22.1034 4.09459 0 255 0
-35.2873 -22.1422 3.96465 0 0 255
-35.1002 -22.2978 3.94759 255 0 0
-35.0878 -22.1028 4.09945 0 255 0
-35.2922 -22.1427 3.96569 0 0 255
-35.0996 -22.3027 3.94812 255 0 0
-35.0869 -22.1021 4.10431 0 255 0
-35.2971 -22.1432 3.96673 0 0 255
-35.099 -22.3077 3.94864 255 0 0
-35.0859 -22.1015 4.10918 0 255 0
-35.3019 -22.1437 3.96777 0 0 255
-35.0984 -22.3126 3.94916 255 0 0
-35.0849 -22.1009 4.11404 0 255 0
-35.3068 -22.1442 3.96882 0 0 255
-35.0978 -22.3175 3.94969 255 0 0
-35.0839 -22.1002 4.1189 0 255 0
-35.3117 -22.1447 3.96986 0 0 255
-35.0971 -22.3225 3.95021 255 0 0
-35.083 -22.0996 4.12376 0 255 0
-35.3165 -22.1452 3.9709 0 0 255
-35.0965 -22.3274 3.95073 255 0 0
-35.082 -22.099 4.12863 0 255 0
-35.3214 -22.1457 3.97194 0 0 255
-35.0959 -22.3323 3.95126 255 0 0
-35.081 -22.0983 4.13349 0 255 0
-35.3263 -22.1462 3.97298 0 0 255
-35.0953 -22.3373 3.95178 255 0 0
-35.08 -22.0977 4.13835 0 255 0
-35.3311 -22.1467 3.97402 0 0 255
-35.0947 -22.3422 3.95231 255 0 0
-35.0791 -22.097 4.14321 0 255 0
-35.336 -22.1472 3.97506 0 0 255
-35.094 -22.3471 3.95283 255 0 0
-35.0781 -22.0964 4.14808 0 255 0
-35.3409 -22.1477 3.9761 0 0 255
-35.0934 -22.3521 3.95335 255 0 0
-35.0771 -22.0958 4.15294 0 255 0
-35.3457 -22.1482 3.97714 0 0 255
-35.0928 -22.357 3.95388 255 0 0
-35.0761 -22.0951 4.1578 0 255 0
-35.3506 -22.1487 3.97818 0 0 255
-35.0922 -22.3619 3.9544 255 0 0
-35.0752 -22.0945 4.16266 0 255 0
-35.3555 -22.1492 3.97922 0 0 255
-35.0916 -22.3669 3.95492 255 0 0
-35.0742 -22.0938 4.16753 0 255 0
-35.3603 -22.1497 3.98026 0 0 255
-35.0909 -22.3718 3.95545 255 0 0
-35.0732 -22.0932 4.17239 0 255 0
-35.3652 -22.1502 3.9813 0 0 255
-35.0903 -22.3768 3.95597 255 0 0
-35.0722 -22.0926 4.17725 0 255 0
-35.37 -22.1507 3.98234 0 0 255
-35.0897 -22.3817 3.95649 255 0 0
-35.0713 -22.0919 4.18211 0 255 0
-35.3749 -22.1512 3.98338 0 0 255
-35.0891 -22.3866 3.95702 255 0 0
-35.0703 -22.0913 4.18698 0 255 0
-35.3798 -22.1517 3.98443 0 0 255
-35.0885 -22.3916 3.95754 255 0 0
-35.0693 -22.0907 4.19184 0 255 0
-35.3846 -22.1522 3.98547 0 0 255
-35.0878 -22.3965 3.95806 255 0 0
-35.0684 -22.09 4.1967 0 255 0
-35.3895 -22.1527 3.98651 0 0 255
-35.0872 -22.4014 3.95859 255 0 0
-35.0674 -22.0894 4.20156 0 255 0
-35.3944 -22.1532 3.98755 0 0 255
-35.0866 -22.4064 3.95911 255 0 0
-35.0664 -22.0887 4.20643 0 255 0
-35.3992 -22.1537 3.98859 0 0 255
-35.086 -22.4113 3.95964 255 0 0
-35.0654 -22.0881 4.21129 0 255 0
-35.4041 -22.1542 3.98963 0 0 255
-35.0854 -22.4162 3.96016 255 0 0
-35.0645 -22.0875 4.21615 0 255 0
-35.409 -22.1547 3.99067 0 0 255
-35.0847 -22.4212 3.96068 255 0 0
-35.0635 -22.0868 4.22101 0 255 0
-35.4138 -22.1552 3.99171 0 0 255
-35.0841 -22.4261 3.96121 255 0 0
-35.0625 -22.0862 4.22587 0 255 0
-35.4187 -22.1557 3.99275 0 0 255
-35.0835 -22.431 3.96173 255 0 0
-35.0615 -22.0855 4.23074 0 255 0
-35.4236 -22.1562 3.99379 0 0 255
-35.0829 -22.436 3.96225 255 0 0
-35.0606 -22.0849 4.2356 0 255 0
-35.4284 -22.1567 3.99483 0 0 255
-35.0823 -22.4409 3.96278 255 0 0
-35.0596 -22.0843 4.24046 0 255 0
-35.4333 -22.1572 3.99587 0 0 255
-35.0816 -22.4458 3.9633 255 0 0
-35.0586 -22.0836 4.24532 0 255 0
-35.4382 -22.1577 3.99691 0 0 255
-35.081 -22.4508 3.96382 255 0 0
-35.0576 -22.083 4.25019 0 255 0
-35.443 -22.1582 3.99795 0 0 255
-35.0804 -22.4557 3.96435 255 0 0
-35.0567 -22.0824 4.25505 0 255 0
-35.4479 -22.1587 3.999 0 0 255
-35.0798 -22.4606 3.96487 255 0 0
-35.0557 -22.0817 4.25991 0 255 0
-35.4528 -22.1592 4.00004 0 0 255
-35.0792 -22.4656 3.96539 255 0 0
-35.0547 -22.0811 4.26477 0 255 0
-35.4576 -22.1597 4.00108 0 0 255
-35.0785 -22.4705 3.96592 255 0 0
-35.0537 -22.0804 4.26964 0 255 0
-35.4625 -22.1602 4.00212 0 0 255
-35.0779 -22.4754 3.96644 255 0 0
-35.0528 -22.0798 4.2745 0 255 0
-35.4673 -22.1607 4.00316 0 0 255
-35.0773 -22.4804 3.96696 255 0 0
-35.0518 -22.0792 4.27936 0 255 0
-35.4722 -22.1612 4.0042 0 0 255
-35.0767 -22.4853 3.96749 255 0 0
-35.0508 -22.0785 4.28422 0 255 0
-35.4771 -22.1617 4.00524 0 0 255
-35.0761 -22.4902 3.96801 255 0 0
-35.0498 -22.0779 4.28909 0 255 0
-35.4819 -22.1622 4.00628 0 0 255
-35.0754 -22.4952 3.96854 255 0 0
-35.0489 -22.0772 4.29395 0 255 0
-35.4868 -22.1627 4.00732 0 0 255
-35.0748 -22.5001 3.96906 255 0 0
-35.0479 -22.0766 4.29881 0 255 0
-35.4917 -22.1632 4.00836 0 0 255
-35.0742 -22.505 3.96958 255 0 0
-35.0469 -22.076 4.30367 0 255 0
-35.4965 -22.1637 4.0094 0 0 255
-35.0736 -22.51 3.97011 255 0 0
-35.0459 -22.0753 4.30854 0 255 0
-35.5014 -22.1642 4.01044 0 0 255
-35.073 -22.5149 3.97063 255 0 0
-35.045 -22.0747 4.3134 0 255 0
-35.5063 -22.1647 4.01148 0 0 255
-35.0723 -22.5198 3.97115 255 0 0
-35.044 -22.0741 4.31826 0 255 0
-35.5111 -22.1652 4.01252 0 0 255
-35.0717 -22.5248 3.97168 255 0 0
-35.043 -22.0734 4.32312 0 255 0
-35.516 -22.1657 4.01356 0 0 255
-35.0711 -22.5297 3.9722 255 0 0
-35.042 -22.0728 4.32799 0 255 0
-35.5209 -22.1662 4.01461 0 0 255
-35.0705 -22.5346 3.97272 255 0 0
-35.0411 -22.0721 4.33285 0 255 0
-35.5257 -22.1667 4.01565 0 0 255
-35.0699 -22.5396 3.97325 255 0 0
-35.0401 -22.0715 4.33771 0 255 0
-35.5306 -22.1672 4.01669 0 0 255
-35.0692 -22.5445 3.97377 255 0 0
-35.0391 -22.0709 4.34257 0 255 0
-35.5354 -22.1677 4.01773 0 0 255
-35.0686 -22.5494 3.97429 255 0 0
-35.0381 -22.0702 4.34743 0 255 0
-35.5403 -22.1682 4.01877 0 0 255
-35.068 -22.5544 3.97482 255 0 0
-35.0372 -22.0696 4.3523 0 255 0
-35.5452 -22.1687 4.01981 0 0 255
-35.0674 -22.5593 3.97534 255 0 0
-35.0362 -22.0689 4.35716 0 255 0
-35.55 -22.1692 4.02085 0 0 255
-35.0668 -22.5642 3.97587 255 0 0
-35.0352 -22.0683 4.36202 0 255 0
-35.5549 -22.1697 4.02189 0 0 255
-35.0661 -22.5692 3.97639 255 0 0
-35.0342 -22.0677 4.36688 0 255 0
-35.5598 -22.1702 4.02293 0 0 255
-35.0655 -22.5741 3.97691 255 0 0
-35.0333 -22.067 4.37175 0 255 0
-35.5646 -22.1707 4.02397 0 0 255
-35.0649 -22.579 3.97744 255 0 0
-35.0323 -22.0664 4.37661 0 255 0
-35.5695 -22.1712 4.02501 0 0 255
-35.0643 -22.584 3.97796 255 0 0
-35.0313 -22.0658 4.38147 0 255 0
-35.5744 -22.1717 4.02605 0 0 255
-35.0637 -22.5889 3.97848 255 0 0
-35.0303 -22.0651 4.38633 0 255 0
-35.5792 -22.1722 4.02709 0 0 255
-35.063 -22.5938 3.97901 255 0 0
-35.0294 -22.0645 4.3912 0 255 0
-35.5841 -22.1727 4.02813 0 0 255
-35.0624 -22.5988 3.97953 255 0 0
-35.0284 -22.0638 4.39606 0 255 0
-35.589 -22.1732 4.02917 0 0 255
-35.0618 -22.6037 3.98005 255 0 0
-35.0274 -22.0632 4.40092 0 255 0
-35.5938 -22.1737 4.03022 0 0 255
-35.0612 -22.6086 3.98058 255 0 0
-35.0264 -22.0626 4.40578 0 255 0
-35.5987 -22.1742 4.03126 0 0 255
-35.0606 -22.6136 3.9811 255 0 0
-35.0255 -22.0619 4.41065 0 255 0
-35.6036 -22.1747 4.0323 0 0 255
-35.4619 -22.4295 4.01958 255 0 0
-35.4619 -22.4295 4.01958 0 255 0
-35.4619 -22.4295 4.01958 0 0 255
-35.4613 -22.4345 4.01985 255 0 0
-35.4611 -22.4292 4.0245 0 255 0
-35.4668 -22.4301 4.02048 0 0 255
-35.4608 -22.4395 4.02012 255 0 0
-35.4602 -22.4288 4.02941 0 255 0
-35.4717 -22.4306 4.02138 0 0 255
-35.4602 -22.4444 4.02038 255 0 0
-35.4593 -22.4284 4.03432 0 255 0
-35.4766 -22.4311 4.02228 0 0 255
-35.4596 -22.4494 4.02065 255 0 0
-35.4585 -22.4281 4.03923 0 255 0
-35.4815 -22.4316 4.02318 0 0 255
-35.459 -22.4543 4.02092 255 0 0
-35.4576 -22.4277 4.04414 0 255 0
-35.4864 -22.4322 4.02408 0 0 255
-35.4584 -22.4593 4.02118 255 0 0
-35.4567 -22.4273 4.04905 0 255 0
-35.4913 -22.4327 4.02498 0 0 255
-35.4578 -22.4642 4.02145 255 0 0
-35.4559 -22.427 4.05396 0 255 0
-35.4962 -22.4332 4.02588 0 0 255
-35.4573 -22.4692 4.02172 255 0 0
-35.455 -22.4266 4.05887 0 255 0
-35.5011 -22.4338 4.02678 0 0 255
-35.4567 -22.4742 4.02199 255 0 0
-35.4542 -22.4262 4.06378 0 255 0
-35.5059 -22.4343 4.02768 0 0 255
-35.4561 -22.4791 4.02225 255 0 0
-35.4533 -22.4259 4.0687 0 255 0
-35.5108 -22.4348 4.02858 0 0 255
-35.4555 -22.4841 4.02252 255 0 0
-35.4524 -22.4255 4.07361 0 255 0
-35.5157 -22.4353 4.02948 0 0 255
-35.4549 -22.489 4.02279 255 0 0
-35.4516 -22.4251 4.07852 0 255 0
-35.5206 -22.4359 4.03038 0 0 255
-35.4543 -22.494 4.02305 255 0 0
-35.4507 -22.4248 4.08343 0 255 0
-35.5255 -22.4364 4.03128 0 0 255
-35.4538 -22.499 4.02332 255 0 0
-35.4498 -22.4244 4.08834 0 255 0
-35.5304 -22.4369 4.03218 0 0 255
-35.4532 -22.5039 4.02359 255 0 0
-35.449 -22.424 4.09325 0 255 0
-35.5353 -22.4374 4.03308 0 0 255
-35.4526 -22.5089 4.02385 255 0 0
-35.4481 -22.4237 4.09816 0 255 0
-35.5402 -22.438 4.03398 0 0 255
-35.452 -22.5138 4.02412 255 0 0
-35.4472 -22.4233 4.10307 0 255 0
-35.5451 -22.4385 4.03488 0 0 255
-35.4514 -22.5188 4.02439 255 0 0
-35.4464 -22.4229 4.10798 0 255 0
-35.55 -22.439 4.03578 0 0 255
-35.4508 -22.5238 4.02465 255 0 0
-35.4455 -22.4226 4.1129 0 255 0
-35.5548 -22.4396 4.03668 0 0 255
-35.4503 -22.5287 4.02492 255 0 0
-35.4446 -22.4222 4.11781 0 255 0
-35.5597 -22.4401 4.03758 0 0 255
-35.4497 -22.5337 4.02519 255 0 0
-35.4438 -22.4219 4.12272 0 255 0
-35.5646 -22.4406 4.03849 0 0 255
-35.4491 -22.5386 4.02545 255 0 0
-35.4429 -22.4215 4.12763 0 255 0
-35.5695 -22.4411 4.03938 0 0 255
-35.4485 -22.5436 4.02572 255 0 0
-35.4421 -22.4211 4.13254 0 255 0
-35.5744 -22.4417 4.04029 0 0 255
-35.4479 -22.5485 4.02599 255 0 0
-35.4412 -22.4208 4.13745 0 255 0
-35.5793 -22.4422 4.04118 0 0 255
-35.4473 -22.5535 4.02625 255 0 0
-35.4403 -22.4204 4.14236 0 255 0
-35.5842 -22.4427 4.04209 0 0 255
-35.4467 -22.5585 4.02652 255 0 0
-35.4395 -22.42 4.14727 0 255 0
-35.5891 -22.4433 4.04298 0 0 255
-35.4462 -22.5634 4.02679 255 0 0
-35.4386 -22.4197 4.15218 0 255 0
-35.594 -22.4438 4.04389 0 0 255
-35.4456 -22.5684 4.02705 255 0 0
-35.4377 -22.4193 4.15709 0 255 0
-35.5989 -22.4443 4.04479 0 0 255
-35.445 -22.5733 4.02732 255 0 0
-35.4369 -22.4189 4.16201 0 255 0
-35.6037 -22.4448 4.04569 0 0 255
-35.4444 -22.5783 4.02759 255 0 0
-35.436 -22.4186 4.16692 0 255 0
-35.6086 -22.4454 4.04659 0 0 255
-35.4438 -22.5833 4.02785 255 0 0
-35.4351 -22.4182 4.17183 0 255 0
-35.6135 -22.4459 4.04749 0 0 255
-35.4432 -22.5882 4.02812 255 0 0
-35.4343 -22.4178 4.17674 0 255 0
-35.6184 -22.4464 4.04839 0 0 255
-35.4427 -22.5932 4.02839 255 0 0
-35.4334 -22.4175 4.18165 0 255 0
-35.6233 -22.4469 4.04929 0 0 255
-35.4421 -22.5981 4.02865 255 0 0
-35.4325 -22.4171 4.18656 0 255 0
-35.6282 -22.4475 4.05019 0 0 255
-35.4415 -22.6031 4.02892 255 0 0
-35.4317 -22.4167 4.19147 0 255 0
-35.6331 -22.448 4.05109 0 0 255
-35.4409 -22.608 4.02919 255 0 0
-35.4308 -22.4164 4.19638 0 255 0
-35.638 -22.4485 4.05199 0 0 255
-35.4403 -22.613 4.02945 255 0 0
-35.4299 -22.416 4.20129 0 255 0
-35.6429 -22.4491 4.05289 0 0 255
-35.4397 -22.618 4.02972 255 0 0
-35.4291 -22.4156 4.20621 0 255 0
-35.6478 -22.4496 4.05379 0 0 255
-35.4392 -22.6229 4.02999 255 0 0
-35.4282 -22.4153 4.21112 0 255 0
-35.6526 -22.4501 4.05469 0 0 255
-35.4386 -22.6279 4.03025 255 0 0
-35.4274 -22.4149 4.21603 0 255 0
-35.6575 -22.4506 4.05559 0 0 255
-35.438 -22.6328 4.03052 255 0 0
-35.4265 -22.4145 4.22094 0 255 0
-35.6624 -22.4512 4.05649 0 0 255
-35.4374 -22.6378 4.03079 255 0 0
-35.4256 -22.4142 4.22585 0 255 0
-35.6673 -22.4517 4.05739 0 0 255
-35.4368 -22.6428 4.03105 255 0 0
-35.4248 -22.4138 4.23076 0 255 0
-35.6722 -22.4522 4.05829 0 0 255
-35.4362 -22.6477 4.03132 255 0 0
-35.4239 -22.4134 4.23567 0 255 0
-35.6771 -22.4527 4.05919 0 0 255
-35.4357 -22.6527 4.03159 255 0 0
-35.423 -22.4131 4.24058 0 255 0
-35.682 -22.4533 4.06009 0 0 255
-35.4351 -22.6576 4.03186 255 0 0
-35.4222 -22.4127 4.24549 0 255 0
-35.6869 -22.4538 4.06099 0 0 255
-35.4345 -22.6626 4.03212 255 0 0
-35.4213 -22.4123 4.25041 0 255 0
-35.6918 -22.4543 4.06189 0 0 255
-35.4339 -22.6675 4.03239 255 0 0
-35.4204 -22.412 4.25532 0 255 0
-35.6967 -22.4549 4.06279 0 0 255
-35.4333 -22.6725 4.03266 255 0 0
-35.4196 -22.4116 4.26023 0 255 0
-35.7015 -22.4554 4.06369 0 0 255
-35.4327 -22.6775 4.03292 255 0 0
-35.4187 -22.4112 4.26514 0 255 0
-35.7064 -22.4559 4.06459 0 0 255
-35.4321 -22.6824 4.03319 255 0 0
-35.4178 -22.4109 4.27005 0 255 0
-35.7113 -22.4564 4.06549 0 0 255
-35.4316 -22.6874 4.03346 255 0 0
-35.417 -22.4105 4.27496 0 255 0
-35.7162 -22.457 4.06639 0 0 255
-35.431 -22.6923 4.03372 255 0 0
-35.4161 -22.4101 4.27987 0 255 0
-35.7211 -22.4575 4.06729 0 0 255
-35.4304 -22.6973 4.03399 255 0 0
-35.4153 -22.4098 4.28478 0 255 0
-35.726 -22.458 4.06819 0 0 255
-35.4298 -22.7023 4.03426 255 0 0
-35.4144 -22.4094 4.28969 0 255 0
-35.7309 -22.4585 4.06909 0 0 255
-35.4292 -22.7072 4.03452 255 0 0
-35.4135 -22.409 4.29461 0 255 0
-35.7358 -22.4591 4.06999 0 0 255
-35.4286 -22.7122 4.03479 255 0 0
-35.4127 -22.4087 4.29952 0 255 0
-35.7407 -22.4596 4.07089 0 0 255
-35.4281 -22.7171 4.03506 255 0 0
-35.4118 -22.4083 4.30443 0 255 0
-35.7455 -22.4601 4.07179 0 0 255
-35.4275 -22.7221 4.03532 255 0 0
-35.4109 -22.4079 4.30934 0 255 0
-35.7504 -22.4607 4.07269 0 0 255
-35.4269 -22.7271 4.03559 255 0 0
-35.4101 -22.4076 4.31425 0 255 0
-35.7553 -22.4612 4.07359 0 0 255
-35.4263 -22.732 4.03586 255 0 0
-35.4092 -22.4072 4.31916 0 255 0
-35.7602 -22.4617 4.07449 0 0 255
-35.4257 -22.737 4.03612 255 0 0
-35.4083 -22.4068 4.32407 0 255 0
-35.7651 -22.4622 4.07539 0 0 255
-35.4251 -22.7419 4.03639 255 0 0
-35.4075 -22.4065 4.32898 0 255 0
-35.77 -22.4628 4.07629 0 0 255
-35.4246 -22.7469 4.03666 255 0 0
-35.4066 -22.4061 4.33389 0 255 0
-35.7749 -22.4633 4.07719 0 0 255
-35.424 -22.7518 4.03692 255 0 0
-35.4057 -22.4057 4.3388 0 255 0
-35.7798 -22.4638 4.07809 0 0 255
-35.4234 -22.7568 4.03719 255 0 0
-35.4049 -22.4054 4.34372 0 255 0
-35.7847 -22.4644 4.07899 0 0 255
-35.4228 -22.7618 4.03746 255 0 0
-35.404 -22.405 4.34863 0 255 0
-35.7896 -22.4649 4.07989 0 0 255
-35.4222 -22.7667 4.03772 255 0 0
-35.4032 -22.4046 4.35354 0 255 0
-35.7944 -22.4654 4.08079 0 0 255
-35.4216 -22.7717 4.03799 255 0 0
-35.4023 -22.4043 4.35845 0 255 0
-35.7993 -22.4659 4.08169 0 0 255
-35.4211 -22.7766 4.03826 255 0 0
-35.4014 -22.4039 4.36336 0 255 0
-35.8042 -22.4665 4.08259 0 0 255
-35.4205 -22.7816 4.03852 255 0 0
-35.4006 -22.4035 4.36827 0 255 0
-35.8091 -22.467 4.08349 0 0 255
-35.4199 -22.7866 4.03879 255 0 0
-35.3997 -22.4032 4.37318 0 255 0
-35.814 -22.4675 4.08439 0 0 255
-35.4193 -22.7915 4.03906 255 0 0
-35.3988 -22.4028 4.37809 0 255 0
-35.8189 -22.468 4.08529 0 0 255
-35.4187 -22.7965 4.03932 255 0 0
-35.398 -22.4025 4.383 0 255 0
-35.8238 -22.4686 4.08619 0 0 255
-35.4181 -22.8014 4.03959 255 0 0
-35.3971 -22.4021 4.38792 0 255 0
-35.8287 -22.4691 4.08709 0 0 255
-35.4175 -22.8064 4.03986 255 0 0
-35.3962 -22.4017 4.39283 0 255 0
-35.8336 -22.4696 4.08799 0 0 255
-35.417 -22.8113 4.04013 255 0 0
-35.3954 -22.4014 4.39774 0 255 0
-35.8385 -22.4702 4.08889 0 0 255
-35.4164 -22.8163 4.04039 255 0 0
-35.3945 -22.401 4.40265 0 255 0
-35.8433 -22.4707 4.08979 0 0 255
-35.4158 -22.8213 4.04066 255 0 0
-35.3936 -22.4006 4.40756 0 255 0
-35.8482 -22.4712 4.09069 0 0 255
-35.4152 -22.8262 4.04093 255 0 0
-35.3928 -22.4003 4.41247 0 255 0
-35.8531 -22.4717 4.09159 0 0 255
-35.4146 -22.8312 4.04119 255 0 0
-35.3919 -22.3999 4.41738 0 255 0
-35.858 -22.4723 4.09249 0 0 255
-35.414 -22.8361 4.04146 255 0 0
-35.391 -22.3995 4.42229 0 255 0
-35.8629 -22.4728 4.09339 0 0 255
-35.4135 -22.8411 4.04173 255 0 0
-35.3902 -22.3992 4.4272 0 255 0
-35.8678 -22.4733 4.09429 0 0 255
-35.4129 -22.8461 4.04199 255 0 0
-35.3893 -22.3988 4.43212 0 255 0
-35.8727 -22.4738 4.09519 0 0 255
-35.4123 -22.851 4.04226 255 0 0
-35.3885 -22.3984 4.43703 0 255 0
-35.8776 -22.4744 4.09609 0 0 255
-35.4117 -22.856 4.04253 255 0 0
-35.3876 -22.3981 4.44194 0 255 0
-35.8825 -22.4749 4.09699 0 0 255
-35.4111 -22.8609 4.04279 255 0 0
-35.3867 -22.3977 4.44685 0 255 0
-35.8874 -22.4754 4.09789 0 0 255
-35.4105 -22.8659 4.04306 255 0 0
-35.3859 -22.3973 4.45176 0 255 0
-35.8923 -22.476 4.09879 0 0 255
-35.41 -22.8709 4.04333 255 0 0
-35.385 -22.397 4.45667 0 255 0
-35.8971 -22.4765 4.09969 0 0 255
-35.4094 -22.8758 4.04359 255 0 0
-35.3841 -22.3966 4.46158 0 255 0
-35.902 -22.477 4.10059 0 0 255
-35.4088 -22.8808 4.04386 255 0 0
-35.3833 -22.3962 4.46649 0 255 0
-35.9069 -22.4775 4.10149 0 0 255
-35.4082 -22.8857 4.04413 255 0 0
-35.3824 -22.3959 4.4714 0 255 0
-35.9118 -22.4781 4.10239 0 0 255
-35.4076 -22.8907 4.04439 255 0 0
-35.3815 -22.3955 4.47632 0 255 0
-35.9167 -22.4786 4.10329 0 0 255
-35.407 -22.8956 4.04466 255 0 0
-35.3807 -22.3951 4.48123 0 255 0
-35.9216 -22.4791 4.10419 0 0 255
-35.4065 -22.9006 4.04493 255 0 0
-35.3798 -22.3948 4.48614 0 255 0
-35.9265 -22.4796 4.10509 0 0 255
-35.4059 -22.9056 4.04519 255 0 0
-35.3789 -22.3944 4.49105 0 255 0
-35.9314 -22.4802 4.10599 0 0 255
-35.4053 -22.9105 4.04546 255 0 0
-35.3781 -22.394 4.49596 0 255 0
-35.9363 -22.4807 4.10689 0 0 255
-35.4047 -22.9155 4.04573 255 0 0
-35.3772 -22.3937 4.50087 0 255 0
-35.9411 -22.4812 4.10779 0 0 255
-35.4041 -22.9204 4.04599 255 0 0
-35.3764 -22.3933 4.50578 0 255 0
-35.946 -22.4818 4.10869 0 0 255
-35.7995 -22.7261 4.09969 255 0 0
-35.7995 -22.7261 4.09969 0 255 0
-35.7995 -22.7261 4.09969 0 0 255
-35.7974 -22.7306 4.10005 255 0 0
-35.7986 -22.7253 4.10455 0 255 0
-35.804 -22.728 4.10079 0 0 255
-35.7954 -22.7352 4.10042 255 0 0
-35.7978 -22.7245 4.10942 0 255 0
-35.8084 -22.7299 4.1019 0 0 255
-35.7934 -22.7397 4.10078 255 0 0
-35.7969 -22.7237 4.11428 0 255 0
-35.8129 -22.7319 4.103 0 0 255
-35.7913 -22.7443 4.10115 255 0 0
-35.796 -22.723 4.11914 0 255 0
-35.8174 -22.7338 4.1041 0 0 255
-35.7893 -22.7488 4.10151 255 0 0
-35.7952 -22.7222 4.12401 0 255 0
-35.8219 -22.7357 4.10521 0 0 255
-35.7872 -22.7534 4.10187 255 0 0
-35.7943 -22.7214 4.12887 0 255 0
-35.8264 -22.7376 4.10631 0 0 255
-35.7852 -22.7579 4.10224 255 0 0
-35.7934 -22.7206 4.13373 0 255 0
-35.8308 -22.7396 4.10742 0 0 255
-35.7831 -22.7625 4.1026 255 0 0
-35.7926 -22.7199 4.13859 0 255 0
-35.8353 -22.7415 4.10852 0 0 255
-35.7811 -22.767 4.10297 255 0 0
-35.7917 -22.7191 4.14346 0 255 0
-35.8398 -22.7434 4.10962 0 0 255
-35.779 -22.7716 4.10333 255 0 0
-35.7909 -22.7183 4.14832 0 255 0
-35.8443 -22.7454 4.11073 0 0 255
-35.777 -22.7761 4.10369 255 0 0
-35.79 -22.7175 4.15318 0 255 0
-35.8488 -22.7473 4.11183 0 0 255
-35.7749 -22.7806 4.10406 255 0 0
-35.7891 -22.7167 4.15805 0 255 0
-35.8532 -22.7492 4.11293 0 0 255
-35.7729 -22.7852 4.10442 255 0 0
-35.7883 -22.716 4.16291 0 255 0
-35.8577 -22.7511 4.11404 0 0 255
-35.7708 -22.7897 4.10479 255 0 0
-35.7874 -22.7152 4.16777 0 255 0
-35.8622 -22.7531 4.11514 0 0 255
-35.7688 -22.7943 4.10515 255 0 0
-35.7865 -22.7144 4.17264 0 255 0
-35.8667 -22.755 4.11624 0 0 255
-35.7667 -22.7988 4.10551 255 0 0
-35.7857 -22.7136 4.1775 0 255 0
-35.8712 -22.7569 4.11735 0 0 255
-35.7647 -22.8034 4.10588 255 0 0
-35.7848 -22.7129 4.18236 0 255 0
-35.8756 -22.7588 4.11845 0 0 255
-35.7627 -22.8079 4.10624 255 0 0
-35.784 -22.7121 4.18723 0 255 0
-35.8801 -22.7608 4.11955 0 0 255
-35.7606 -22.8125 4.10661 255 0 0
-35.7831 -22.7113 4.19209 0 255 0
-35.8846 -22.7627 4.12066 0 0 255
-35.7586 -22.817 4.10697 255 0 0
-35.7822 -22.7105 4.19695 0 255 0
-35.8891 -22.7646 4.12176 0 0 255
-35.7565 -22.8216 4.10733 255 0 0
-35.7814 -22.7097 4.20181 0 255 0
-35.8936 -22.7666 4.12287 0 0 255
-35.7545 -22.8261 4.1077 255 0 0
-35.7805 -22.709 4.20668 0 255 0
-35.898 -22.7685 4.12397 0 0 255
-35.7524 -22.8307 4.10806 255 0 0
-35.7796 -22.7082 4.21154 0 255 0
-35.9025 -22.7704 4.12507 0 0 255
-35.7504 -22.8352 4.10843 255 0 0
-35.7788 -22.7074 4.2164 0 255 0
-35.907 -22.7723 4.12618 0 0 255
-35.7483 -22.8398 4.10879 255 0 0
-35.7779 -22.7066 4.22127 0 255 0
-35.9115 -22.7743 4.12728 0 0 255
-35.7463 -22.8443 4.10915 255 0 0
-35.777 -22.7059 4.22613 0 255 0
-35.916 -22.7762 4.12838 0 0 255
-35.7442 -22.8489 4.10952 255 0 0
-35.7762 -22.7051 4.23099 0 255 0
-35.9204 -22.7781 4.12949 0 0 255
-35.7422 -22.8534 4.10988 255 0 0
-35.7753 -22.7043 4.23586 0 255 0
-35.9249 -22.78 4.13059 0 0 255
-35.7401 -22.858 4.11025 255 0 0
-35.7745 -22.7035 4.24072 0 255 0
-35.9294 -22.782 4.13169 0 0 255
-35.7381 -22.8625 4.11061 255 0 0
-35.7736 -22.7027 4.24558 0 255 0
-35.9339 -22.7839 4.1328 0 0 255
-35.7361 -22.867 4.11097 255 0 0
-35.7727 -22.702 4.25045 0 255 0
-35.9384 -22.7858 4.1339 0 0 255
-35.734 -22.8716 4.11134 255 0 0
-35.7719 -22.7012 4.25531 0 255 0
-35.9428 -22.7878 4.13501 0 0 255
-35.732 -22.8761 4.1117 255 0 0
-35.771 -22.7004 4.26017 0 255 0
-35.9473 -22.7897 4.13611 0 0 255
-35.7299 -22.8807 4.11207 255 0 0
-35.7701 -22.6996 4.26503 0 255 0
-35.9518 -22.7916 4.13721 0 0 255
-35.7279 -22.8852 4.11243 255 0 0
-35.7693 -22.6989 4.2699 0 255 0
-35.9563 -22.7935 4.13832 0 0 255
-35.7258 -22.8898 4.11279 255 0 0
-35.7684 -22.6981 4.27476 0 255 0
-35.9608 -22.7955 4.13942 0 0 255
-35.7238 -22.8943 4.11316 255 0 0
-35.7675 -22.6973 4.27962 0 255 0
-35.9652 -22.7974 4.14052 0 0 255
-35.7217 -22.8989 4.11352 255 0 0
-35.7667 -22.6965 4.28449 0 255 0
-35.9697 -22.7993 4.14163 0 0 255
-35.7197 -22.9034 4.11389 255 0 0
-35.7658 -22.6957 4.28935 0 255 0
-35.9742 -22.8012 4.14273 0 0 255
-35.7176 -22.908 4.11425 255 0 0
-35.765 -22.695 4.29421 0 255 0
-35.9787 -22.8032 4.14383 0 0 255
-35.7156 -22.9125 4.11461 255 0 0
-35.7641 -22.6942 4.29908 0 255 0
-35.9832 -22.8051 4.14494 0 0 255
-35.7135 -22.9171 4.11498 255 0 0
-35.7632 -22.6934 4.30394 0 255 0
-35.9876 -22.807 4.14604 0 0 255
-35.7115 -22.9216 4.11534 255 0 0
-35.7624 -22.6926 4.3088 0 255 0
-35.9921 -22.809 4.14714 0 0 255
-35.7094 -22.9262 4.11571 255 0 0
-35.7615 -22.6919 4.31367 0 255 0
-35.9966 -22.8109 4.14825 0 0 255
-35.7074 -22.9307 4.11607 255 0 0
-35.7606 -22.6911 4.31853 0 255 0
-36.0011 -22.8128 4.14935 0 0 255
-35.7054 -22.9353 4.11643 255 0 0
-35.7598 -22.6903 4.32339 0 255 0
-36.0056 -22.8147 4.15046 0 0 255
-35.7033 -22.9398 4.1168 255 0 0
-35.7589 -22.6895 4.32825 0 255 0
-36.01 -22.8167 4.15156 0 0 255
-35.7013 -22.9444 4.11716 255 0 0
-35.758 -22.6887 4.33312 0 255 0
-36.0145 -22.8186 4.15266 0 0 255
-35.6992 -22.9489 4.11753 255 0 0
-35.7572 -22.688 4.33798 0 255 0
-36.019 -22.8205 4.15377 0 0 255
-35.6972 -22.9535 4.11789 255 0 0
-35.7563 -22.6872 4.34284 0 255 0
-36.0235 -22.8225 4.15487 0 0 255
-35.6951 -22.958 4.11825 255 0 0
-35.7555 -22.6864 4.34771 0 255 0
-36.028 -22.8244 4.15597 0 0 255
-35.6931 -22.9625 4.11862 255 0 0
-35.7546 -22.6856 4.35257 0 255 0
-36.0324 -22.8263 4.15708 0 0 255
-35.691 -22.9671 4.11898 255 0 0
-35.7537 -22.6849 4.35743 0 255 0
-36.0369 -22.8282 4.15818 0 0 255
-35.689 -22.9716 4.11935 255 0 0
-35.7529 -22.6841 4.3623 0 255 0
-36.0414 -22.8302 4.15928 0 0 255
-35.6869 -22.9762 4.11971 255 0 0
-35.752 -22.6833 4.36716 0 255 0
-36.0459 -22.8321 4.16039 0 0 255
-35.6849 -22.9807 4.12007 255 0 0
-35.7511 -22.6825 4.37202 0 255 0
-36.0503 -22.834 4.16149 0 0 255
-35.6828 -22.9853 4.12044 255 0 0
-35.7503 -22.6817 4.37689 0 255 0
-36.0548 -22.8359 4.1626 0 0 255
-35.6808 -22.9898 4.1208 255 0 0
-35.7494 -22.681 4.38175 0 255 0
-36.0593 -22.8379 4.1637 0 0 255
-35.6788 -22.9944 4.12117 255 0 0
-35.7486 -22.6802 4.38661 0 255 0
-36.0638 -22.8398 4.1648 0 0 255
-35.6767 -22.9989 4.12153 255 0 0
-35.7477 -22.6794 4.39147 0 255 0
-36.0683 -22.8417 4.16591 0 0 255
-35.6747 -23.0035 4.12189 255 0 0
-35.7468 -22.6786 4.39634 0 255 0
-36.0727 -22.8437 4.16701 0 0 255
-35.6726 -23.008 4.12226 255 0 0
-35.746 -22.6779 4.4012 0 255 0
-36.0772 -22.8456 4.16811 0 0 255
-35.6706 -23.0126 4.12262 255 0 0
-35.7451 -22.6771 4.40606 0 255 0
-36.0817 -22.8475 4.16922 0 0 255
-35.6685 -23.0171 4.12299 255 0 0
-35.7442 -22.6763 4.41093 0 255 0
-36.0862 -22.8494 4.17032 0 0 255
-35.6665 -23.0217 4.12335 255 0 0
-35.7434 -22.6755 4.41579 0 255 0
-36.0907 -22.8514 4.17142 0 0 255
-35.6644 -23.0262 4.12371 255 0 0
-35.7425 -22.6747 4.42065 0 255 0
-36.0951 -22.8533 4.17253 0 0 255
-35.6624 -23.0308 4.12408 255 0 0
-35.7416 -22.674 4.42552 0 255 0
-36.0996 -22.8552 4.17363 0 0 255
-35.6603 -23.0353 4.12444 255 0 0
-35.7408 -22.6732 4.43038 0 255 0
-36.1041 -22.8571 4.17474 0 0 255
-35.6583 -23.0399 4.12481 255 0 0
-35.7399 -22.6724 4.43524 0 255 0
-36.1086 -22.8591 4.17584 0 0 255
-35.6562 -23.0444 4.12517 255 0 0
-35.7391 -22.6716 4.44011 0 255 0
-36.1131 -22.861 4.17694 0 0 255
-35.6542 -23.0489 4.12553 255 0 0
-35.7382 -22.6709 4.44497 0 255 0
-36.1175 -22.8629 4.17805 0 0 255
-35.6521 -23.0535 4.1259 255 0 0
-35.7373 -22.6701 4.44983 0 255 0
-36.122 -22.8649 4.17915 0 0 255
-35.6501 -23.058 4.12626 255 0 0
-35.7365 -22.6693 4.45469 0 255 0
-36.1265 -22.8668 4.18025 0 0 255
-35.6481 -23.0626 4.12663 255 0 0
-35.7356 -22.6685 4.45956 0 255 0
-36.131 -22.8687 4.18136 0 0 255
-35.646 -23.0671 4.12699 255 0 0
-35.7347 -22.6677 4.46442 0 255 0
-36.1355 -22.8706 4.18246 0 0 255
-35.644 -23.0717 4.12735 255 0 0
-35.7339 -22.667 4.46928 0 255 0
-36.1399 -22.8726 4.18356 0 0 255
-35.6419 -23.0762 4.12772 255 0 0
-35.733 -22.6662 4.47415 0 255 0
-36.1444 -22.8745 4.18467 0 0 255
-35.6399 -23.0808 4.12808 255 0 0
-35.7321 -22.6654 4.47901 0 255 0
-36.1489 -22.8764 4.18577 0 0 255
-35.6378 -23.0853 4.12845 255 0 0
-35.7313 -22.6646 4.48387 0 255 0
-36.1534 -22.8783 4.18687 0 0 255
-35.6358 -23.0899 4.12881 255 0 0
-35.7304 -22.6639 4.48874 0 255 0
-36.1579 -22.8803 4.18798 0 0 255
-35.6337 -23.0944 4.12917 255 0 0
-35.7296 -22.6631 4.4936 0 255 0
-36.1623 -22.8822 4.18908 0 0 255
-35.6317 -23.099 4.12954 255 0 0
-35.7287 -22.6623 4.49846 0 255 0
-36.1668 -22.8841 4.19019 0 0 255
-35.6296 -23.1035 4.1299 255 0 0
-35.7278 -22.6615 4.50333 0 255 0
-36.1713 -22.8861 4.19129 0 0 255
-35.6276 -23.1081 4.13027 255 0 0
-35.727 -22.6607 4.50819 0 255 0
-36.1758 -22.888 4.19239 0 0 255
-35.6255 -23.1126 4.13063 255 0 0
-35.7261 -22.66 4.51305 0 255 0
-36.1803 -22.8899 4.1935 0 0 255
-35.6235 -23.1172 4.13099 255 0 0
-35.7252 -22.6592 4.51791 0 255 0
-36.1847 -22.8918 4.1946 0 0 255
-35.6215 -23.1217 4.13136 255 0 0
-35.7244 -22.6584 4.52278 0 255 0
-36.1892 -22.8938 4.1957 0 0 255
-35.6194 -23.1263 4.13172 255 0 0
-35.7235 -22.6576 4.52764 0 255 0
-36.1937 -22.8957 4.19681 0 0 255
-35.6174 -23.1308 4.13209 255 0 0
-35.7226 -22.6569 4.5325 0 255 0
-36.1982 -22.8976 4.19791 0 0 255
-35.6153 -23.1354 4.13245 255 0 0
-35.7218 -22.6561 4.53737 0 255 0
-36.2027 -22.8996 4.19901 0 0 255
-35.6133 -23.1399 4.13281 255 0 0
-35.7209 -22.6553 4.54223 0 255 0
-36.2071 -22.9015 4.20012 0 0 255
-35.6112 -23.1444 4.13318 255 0 0
-35.7201 -22.6545 4.54709 0 255 0
-36.2116 -22.9034 4.20122 0 0 255
-35.6092 -23.149 4.13354 255 0 0
-35.7192 -22.6537 4.55196 0 255 0
-36.2161 -22.9053 4.20233 0 0 255
-35.6071 -23.1535 4.13391 255 0 0
-35.7183 -22.653 4.55682 0 255 0
-36.2206 -22.9073 4.20343 0 0 255
-35.6051 -23.1581 4.13427 255 0 0
-35.7175 -22.6522 4.56168 0 255 0
-36.2251 -22.9092 4.20453 0 0 255
-35.603 -23.1626 4.13463 255 0 0
-35.7166 -22.6514 4.56655 0 255 0
-36.2295 -22.9111 4.20564 0 0 255
-35.601 -23.1672 4.135 255 0 0
-35.7157 -22.6506 4.57141 0 255 0
-36.234 -22.913 4.20674 0 0 255
-35.5989 -23.1717 4.13536 255 0 0
-35.7149 -22.6499 4.57627 0 255 0
-36.2385 -22.915 4.20784 0 0 255
-35.5969 -23.1763 4.13573 255 0 0
-35.714 -22.6491 4.58113 0 255 0
-36.243 -22.9169 4.20895 0 0 255
-36.1727 -22.9541 4.18572 255 0 0
-36.1727 -22.9541 4.18572 0 255 0
-36.1727 -22.9541 4.18572 0 0 255
-36.1708 -22.9587 4.18603 255 0 0
-36.1721 -22.9535 4.19064 0 255 0
-36.1773 -22.9559 4.18656 0 0 255
-36.1689 -22.9633 4.18634 255 0 0
-36.1714 -22.9529 4.19556 0 255 0
-36.1819 -22.9578 4.1874 0 0 255
-36.167 -22.968 4.18665 255 0 0
-36.1708 -22.9523 4.20048 0 255 0
-36.1865 -22.9596 4.18823 0 0 255
-36.1651 -22.9726 4.18695 255 0 0
-36.1701 -22.9517 4.2054 0 255 0
-36.191 -22.9614 4.18907 0 0 255
-36.1632 -22.9772 4.18726 255 0 0
-36.1694 -22.9511 4.21032 0 255 0
-36.1956 -22.9633 4.1899 0 0 255
-36.1613 -22.9818 4.18757 255 0 0
-36.1688 -22.9505 4.21524 0 255 0
-36.2002 -22.9651 4.19074 0 0 255
-36.1594 -22.9864 4.18788 255 0 0
-36.1681 -22.9499 4.22016 0 255 0
-36.2048 -22.9669 4.19158 0 0 255
-36.1575 -22.991 4.18819 255 0 0
-36.1675 -22.9493 4.22508 0 255 0
-36.2094 -22.9687 4.19241 0 0 255
-36.1556 -22.9957 4.18849 255 0 0
-36.1668 -22.9487 4.23 0 255 0
-36.2139 -22.9706 4.19325 0 0 255
-36.1537 -23.0003 4.1888 255 0 0
-36.1661 -22.9481 4.23492 0 255 0
-36.2185 -22.9724 4.19409 0 0 255
-36.1518 -23.0049 4.18911 255 0 0
-36.1655 -22.9475 4.23984 0 255 0
-36.2231 -22.9742 4.19492 0 0 255
-36.1499 -23.0095 4.18942 255 0 0
-36.1648 -22.9469 4.24476 0 255 0
-36.2277 -22.9761 4.19576 0 0 255
-36.148 -23.0141 4.18972 255 0 0
-36.1642 -22.9463 4.24968 0 255 0
-36.2323 -22.9779 4.19659 0 0 255
-36.1461 -23.0187 4.19003 255 0 0
-36.1635 -22.9457 4.2546 0 255 0
-36.2368 -22.9797 4.19743 0 0 255
-36.1442 -23.0233 4.19034 255 0 0
-36.1628 -22.9451 4.25952 0 255 0
-36.2414 -22.9815 4.19827 0 0 255
-36.1423 -23.028 4.19065 255 0 0
-36.1622 -22.9445 4.26444 0 255 0
-36.246 -22.9834 4.1991 0 0 255
-36.1404 -23.0326 4.19096 255 0 0
-36.1615 -22.9439 4.26936 0 255 0
-36.2506 -22.9852 4.19994 0 0 255
-36.1385 -23.0372 4.19126 255 0 0
-36.1609 -22.9433 4.27428 0 255 0
-36.2551 -22.987 4.20078 0 0 255
-36.1367 -23.0418 4.19157 255 0 0
-36.1602 -22.9427 4.2792 0 255 0
-36.2597 -22.9889 4.20161 0 0 255
-36.1348 -23.0464 4.19188 255 0 0
-36.1595 -22.9421 4.28412 0 255 0
-36.2643 -22.9907 4.20245 0 0 255
-36.1329 -23.051 4.19219 255 0 0
-36.1589 -22.9415 4.28904 0 255 0
-36.2689 -22.9925 4.20328 0 0 255
-36.131 -23.0556 4.1925 255 0 0
-36.1582 -22.9409 4.29396 0 255 0
-36.2735 -22.9943 4.20412 0 0 255
-36.1291 -23.0603 4.1928 255 0 0
-36.1576 -22.9403 4.29888 0 255 0
-36.278 -22.9962 4.20496 0 0 255
-36.1272 -23.0649 4.19311 255 0 0
-36.1569 -22.9397 4.3038 0 255 0
-36.2826 -22.998 4.20579 0 0 255
-36.1253 -23.0695 4.19342 255 0 0
-36.1563 -22.9391 4.30872 0 255 0
-36.2872 -22.9998 4.20663 0 0 255
-36.1234 -23.0741 4.19373 255 0 0
-36.1556 -22.9385 4.31364 0 255 0
-36.2918 -23.0016 4.20747 0 0 255
-36.1215 -23.0787 4.19403 255 0 0
-36.1549 -22.9379 4.31856 0 255 0
-36.2963 -23.0035 4.2083 0 0 255
-36.1196 -23.0833 4.19434 255 0 0
-36.1543 -22.9373 4.32348 0 255 0
-36.3009 -23.0053 4.20914 0 0 255
-36.1177 -23.088 4.19465 255 0 0
-36.1536 -22.9367 4.3284 0 255 0
-36.3055 -23.0071 4.20998 0 0 255
-36.1158 -23.0926 4.19496 255 0 0
-36.153 -22.9361 4.33332 0 255 0
-36.3101 -23.009 4.21081 0 0 255
-36.1139 -23.0972 4.19527 255 0 0
-36.1523 -22.9355 4.33824 0 255 0
-36.3147 -23.0108 4.21165 0 0 255
-36.112 -23.1018 4.19557 255 0 0
-36.1516 -22.9349 4.34316 0 255 0
-36.3192 -23.0126 4.21248 0 0 255
-36.1101 -23.1064 4.19588 255 0 0
-36.151 -22.9343 4.34808 0 255 0
-36.3238 -23.0144 4.21332 0 0 255
-36.1082 -23.111 4.19619 255 0 0
-36.1503 -22.9337 4.353 0 255 0
-36.3284 -23.0163 4.21416 0 0 255
-36.1063 -23.1156 4.1965 255 0 0
-36.1497 -22.9331 4.35792 0 255 0
-36.333 -23.0181 4.21499 0 0 255
-36.1044 -23.1203 4.19681 255 0 0
-36.149 -22.9325 4.36284 0 255 0
-36.3375 -23.0199 4.21583 0 0 255
-36.1025 -23.1249 4.19711 255 0 0
-36.1483 -22.9319 4.36776 0 255 0
-36.3421 -23.0218 4.21667 0 0 255
-36.1006 -23.1295 4.19742 255 0 0
-36.1477 -22.9313 4.37268 0 255 0
-36.3467 -23.0236 4.2175 0 0 255
-36.0987 -23.1341 4.19773 255 0 0
-36.147 -22.9307 4.3776 0 255 0
-36.3513 -23.0254 4.21834 0 0 255
-36.0968 -23.1387 4.19804 255 0 0
-36.1464 -22.9301 4.38252 0 255 0
-36.3559 -23.0272 4.21917 0 0 255
-36.0949 -23.1433 4.19834 255 0 0
-36.1457 -22.9295 4.38744 0 255 0
-36.3604 -23.0291 4.22001 0 0 255
-36.093 -23.1479 4.19865 255 0 0
-36.145 -22.9289 4.39236 0 255 0
-36.365 -23.0309 4.22085 0 0 255
-36.0911 -23.1526 4.19896 255 0 0
-36.1444 -22.9283 4.39728 0 255 0
-36.3696 -23.0327 4.22168 0 0 255
-36.0892 -23.1572 4.19927 255 0 0
-36.1437 -22.9277 4.4022 0 255 0
-36.3742 -23.0346 4.22252 0 0 255
-36.0873 -23.1618 4.19958 255 0 0
-36.1431 -22.9271 4.40712 0 255 0
-36.3787 -23.0364 4.22336 0 0 255
-36.0854 -23.1664 4.19988 255 0 0
-36.1424 -22.9265 4.41204 0 255 0
-36.3833 -23.0382 4.22419 0 0 255
-36.0835 -23.171 4.20019 255 0 0
-36.1417 -22.9259 4.41696 0 255 0
-36.3879 -23.04 4.22503 0 0 255
-36.0816 -23.1756 4.2005 255 0 0
-36.1411 -22.9253 4.42188 0 255 0
-36.3925 -23.0419 4.22586 0 0 255
-36.0797 -23.1803 4.20081 255 0 0
-36.1404 -22.9247 4.4268 0 255 0
-36.3971 -23.0437 4.2267 0 0 255
-36.0778 -23.1849 4.20111 255 0 0
-36.1398 -22.9241 4.43172 0 255 0
-36.4016 -23.0455 4.22754 0 0 255
-36.0759 -23.1895 4.20142 255 0 0
-36.1391 -22.9235 4.43664 0 255 0
-36.4062 -23.0474 4.22837 0 0 255
-36.074 -23.1941 4.20173 255 0 0
-36.1385 -22.9229 4.44156 0 255 0
-36.4108 -23.0492 4.22921 0 0 255
-36.0721 -23.1987 4.20204 255 0 0
-36.1378 -22.9223 4.44648 0 255 0
-36.4154 -23.051 4.23005 0 0 255
-36.0702 -23.2033 4.20235 255 0 0
-36.1371 -22.9217 4.4514 0 255 0
-36.42 -23.0528 4.23088 0 0 255
-36.0683 -23.2079 4.20265 255 0 0
-36.1365 -22.9211 4.45632 0 255 0
-36.4245 -23.0547 4.23172 0 0 255
-36.0664 -23.2126 4.20296 255 0 0
-36.1358 -22.9205 4.46124 0 255 0
-36.4291 -23.0565 4.23255 0 0 255
-36.0645 -23.2172 4.20327 255 0 0
-36.1352 -22.9199 4.46616 0 255 0
-36.4337 -23.0583 4.23339 0 0 255
-36.0626 -23.2218 4.20358 255 0 0
-36.1345 -22.9193 4.47108 0 255 0
-36.4383 -23.0602 4.23423 0 0 255
-36.0607 -23.2264 4.20389 255 0 0
-36.1338 -22.9187 4.476 0 255 0
-36.4428 -23.062 4.23506 0 0 255
-36.0588 -23.231 4.20419 255 0 0
-36.1332 -22.9181 4.48092 0 255 0
-36.4474 -23.0638 4.2359 0 0 255
-36.0569 -23.2356 4.2045 255 0 0
-36.1325 -22.9175 4.48584 0 255 0
-36.452 -23.0656 4.23674 0 0 255
-36.055 -23.2402 4.20481 255 0 0
-36.1319 -22.9169 4.49076 0 255 0
-36.4566 -23.0675 4.23757 0 0 255
-36.0531 -23.2449 4.20512 255 0 0
-36.1312 -22.9163 4.49568 0 255 0
-36.4612 -23.0693 4.23841 0 0 255
-36.0512 -23.2495 4.20542 255 0 0
-36.1305 -22.9157 4.5006 0 255 0
-36.4657 -23.0711 4.23924 0 0 255
-36.0493 -23.2541 4.20573 255 0 0
-36.1299 -22.9151 4.50552 0 255 0
-36.4703 -23.0729 4.24008 0 0 255
-36.0474 -23.2587 4.20604 255 0 0
-36.1292 -22.9145 4.51044 0 255 0
-36.4749 -23.0748 4.24092 0 0 255
-36.0455 -23.2633 4.20635 255 0 0
-36.1286 -22.9139 4.51536 0 255 0
-36.4795 -23.0766 4.24175 0 0 255
-36.0436 -23.2679 4.20666 255 0 0
-36.1279 -22.9134 4.52028 0 255 0
-36.484 -23.0784 4.24259 0 0 255
-36.0417 -23.2726 4.20696 255 0 0
-36.1272 -22.9128 4.5252 0 255 0
-36.4886 -23.0803 4.24343 0 0 255
-36.0398 -23.2772 4.20727 255 0 0
-36.1266 -22.9122 4.53012 0 255 0
-36.4932 -23.0821 4.24426 0 0 255
-36.0379 -23.2818 4.20758 255 0 0
-36.1259 -22.9116 4.53504 0 255 0
-36.4978 -23.0839 4.2451 0 0 255
-36.036 -23.2864 4.20789 255 0 0
-36.1253 -22.911 4.53996 0 255 0
-36.5024 -23.0857 4.24593 0 0 255
-36.0341 -23.291 4.20819 255 0 0
-36.1246 -22.9104 4.54488 0 255 0
-36.5069 -23.0876 4.24677 0 0 255
-36.0322 -23.2956 4.2085 255 0 0
-36.1239 -22.9098 4.5498 0 255 0
-36.5115 -23.0894 4.24761 0 0 255
-36.0303 -23.3002 4.20881 255 0 0
-36.1233 -22.9092 4.55472 0 255 0
-36.5161 -23.0912 4.24844 0 0 255
-36.0284 -23.3049 4.20912 255 0 0
-36.1226 -22.9086 4.55964 0 255 0
-36.5207 -23.0931 4.24928 0 0 255
-36.0265 -23.3095 4.20943 255 0 0
-36.122 -22.908 4.56456 0 255 0
-36.5252 -23.0949 4.25012 0 0 255
-36.0246 -23.3141 4.20973 255 0 0
-36.1213 -22.9074 4.56948 0 255 0
-36.5298 -23.0967 4.25095 0 0 255
-36.0227 -23.3187 4.21004 255 0 0
-36.1206 -22.9068 4.5744 0 255 0
-36.5344 -23.0985 4.25179 0 0 255
-36.0208 -23.3233 4.21035 255 0 0
-36.12 -22.9062 4.57932 0 255 0
-36.539 -23.1004 4.25262 0 0 255
-36.0189 -23.3279 4.21066 255 0 0
-36.1193 -22.9056 4.58424 0 255 0
-36.5436 -23.1022 4.25346 0 0 255
-36.017 -23.3325 4.21097 255 0 0
-36.1187 -22.905 4.58916 0 255 0
-36.5481 -23.104 4.2543 0 0 255
-36.0151 -23.3372 4.21127 255 0 0
-36.118 -22.9044 4.59408 0 255 0
-36.5527 -23.1059 4.25513 0 0 255
-36.0132 -23.3418 4.21158 255 0 0
-36.1174 -22.9038 4.599 0 255 0
-36.5573 -23.1077 4.25597 0 0 255
-36.0113 -23.3464 4.21189 255 0 0
-36.1167 -22.9032 4.60392 0 255 0
-36.5619 -23.1095 4.25681 0 0 255
-36.0094 -23.351 4.2122 255 0 0
-36.116 -22.9026 4.60884 0 255 0
-36.5664 -23.1113 4.25764 0 0 255
-36.0075 -23.3556 4.2125 255 0 0
-36.1154 -22.902 4.61376 0 255 0
-36.571 -23.1132 4.25848 0 0 255
-36.0056 -23.3602 4.21281 255 0 0
-36.1147 -22.9014 4.61868 0 255 0
-36.5756 -23.115 4.25932 0 0 255
-36.0037 -23.3649 4.21312 255 0 0
-36.1141 -22.9008 4.6236 0 255 0
-36.5802 -23.1168 4.26015 0 0 255
-36.0018 -23.3695 4.21343 255 0 0
-36.1134 -22.9002 4.62852 0 255 0
-36.5848 -23.1187 4.26099 0 0 255
-35.9999 -23.3741 4.21374 255 0 0
-36.1127 -22.8996 4.63344 0 255 0
-36.5893 -23.1205 4.26182 0 0 255
-35.998 -23.3787 4.21404 255 0 0
-36.1121 -22.899 4.63836 0 255 0
-36.5939 -23.1223 4.26266 0 0 255
-35.9961 -23.3833 4.21435 255 0 0
-36.1114 -22.8984 4.64328 0 255 0
-36.5985 -23.1241 4.2635 0 0 255
-35.9942 -23.3879 4.21466 255 0 0
-36.1108 -22.8978 4.6482 0 255 0
-36.6031 -23.126 4.26433 0 0 255
-35.9923 -23.3925 4.21497 255 0 0
-36.1101 -22.8972 4.65312 0 255 0
-36.6077 -23.1278 4.26517 0 0 255
-35.9904 -23.3972 4.21527 255 0 0
-36.1094 -22.8966 4.65804 0 255 0
-36.6122 -23.1296 4.26601 0 0 255
-35.9885 -23.4018 4.21558 255 0 0
-36.1088 -22.896 4.66296 0 255 0
-36.6168 -23.1314 4.26684 0 0 255
-35.9866 -23.4064 4.21589 255 0 0
-36.1081 -22.8954 4.66788 0 255 0
-36.6214 -23.1333 4.26768 0 0 255
-35.9847 -23.411 4.2162 255 0 0
-36.1075 -22.8948 4.6728 0 255 0
-36.626 -23.1351 4.26851 0 0 255
-36.5577 -23.1844 4.27027 255 0 0
-36.5577 -23.1844 4.27027 0 255 0
-36.5577 -23.1844 4.27027 0 0 255
-36.5544 -23.1881 4.27059 255 0 0
-36.5572 -23.1835 4.27517 0 255 0
-36.5614 -23.1876 4.27124 0 0 255
-36.551 -23.1918 4.27091 255 0 0
-36.5566 -23.1826 4.28007 0 255 0
-36.5651 -23.1908 4.2722 0 0 255
-36.5477 -23.1956 4.27123 255 0 0
-36.5561 -23.1817 4.28496 0 255 0
-36.5688 -23.194 4.27316 0 0 255
-36.5444 -23.1993 4.27155 255 0 0
-36.5556 -23.1809 4.28986 0 255 0
-36.5725 -23.1972 4.27413 0 0 255
-36.5411 -23.203 4.27187 255 0 0
-36.5551 -23.18 4.29475 0 255 0
-36.5762 -23.2004 4.27509 0 0 255
-36.5378 -23.2068 4.27219 255 0 0
-36.5546 -23.1791 4.29965 0 255 0
-36.5799 -23.2036 4.27605 0 0 255
-36.5345 -23.2105 4.27251 255 0 0
-36.5541 -23.1782 4.30455 0 255 0
-36.5836 -23.2069 4.27702 0 0 255
-36.5312 -23.2142 4.27283 255 0 0
-36.5536 -23.1774 4.30944 0 255 0
-36.5873 -23.2101 4.27798 0 0 255
-36.5278 -23.218 4.27314 255 0 0
-36.553 -23.1765 4.31434 0 255 0
-36.591 -23.2133 4.27894 0 0 255
-36.5245 -23.2217 4.27346 255 0 0
-36.5525 -23.1756 4.31923 0 255 0
-36.5948 -23.2165 4.27991 0 0 255
-36.5212 -23.2254 4.27378 255 0 0
-36.552 -23.1748 4.32413 0 255 0
-36.5985 -23.2197 4.28087 0 0 255
-36.5179 -23.2291 4.2741 255 0 0
-36.5515 -23.1739 4.32903 0 255 0
-36.6022 -23.2229 4.28183 0 0 255
-36.5146 -23.2329 4.27442 255 0 0
