ply
format ascii 1.0
element vertex 1303
property float x
property float y
property float z
property uchar red
property uchar green
property uchar blue
element face 0
property list uchar int vertex_indices
end_header
9.091 38.1616 -0.0639599 0 255 255
9.08516 38.1575 -0.0634302 0 255 255
9.07944 38.1533 -0.062878 0 255 255
9.07386 38.1493 -0.0622959 0 255 255
9.06834 38.1453 -0.0616656 0 255 255
9.0629 38.1414 -0.060981 0 255 255
9.05752 38.1375 -0.0602348 0 255 255
9.05219 38.1337 -0.0594222 0 255 255
9.0469 38.13 -0.0585407 0 255 255
9.04166 38.1263 -0.0575963 0 255 255
9.03641 38.1227 -0.0565784 0 255 255
9.03117 38.1192 -0.0554952 0 255 255
9.02594 38.1158 -0.0543494 0 255 255
9.02076 38.1125 -0.0531516 0 255 255
9.01556 38.1093 -0.0518905 0 255 255
9.01037 38.1061 -0.0505773 0 255 255
9.0052 38.1029 -0.0492173 0 255 255
9.00007 38.0998 -0.0478254 0 255 255
8.99493 38.0967 -0.0463917 0 255 255
8.9898 38.0936 -0.044933 0 255 255
8.9847 38.0905 -0.043458 0 255 255
8.97962 38.0873 -0.0419754 0 255 255
8.97456 38.0841 -0.040494 0 255 255
8.96458 38.0777 -0.0375726 0 255 255
8.95963 38.0744 -0.0361315 0 255 255
8.95471 38.0711 -0.0347151 0 255 255
8.94983 38.0678 -0.0333302 0 255 255
8.94503 38.0644 -0.0319915 0 255 255
8.94024 38.0611 -0.0306889 0 255 255
8.93548 38.0576 -0.0294374 0 255 255
8.93075 38.0542 -0.0282443 0 255 255
8.92604 38.0508 -0.0271171 0 255 255
8.92136 38.0473 -0.0260641 0 255 255
8.9167 38.0439 -0.0250993 0 255 255
8.91202 38.0404 -0.0242193 0 255 255
8.90733 38.037 -0.0234387 0 255 255
8.90263 38.0335 -0.0227653 0 255 255
8.89793 38.0301 -0.0222097 0 255 255
8.89319 38.0267 -0.0217713 0 255 255
8.88841 38.0233 -0.0214591 0 255 255
8.8836 38.02 -0.0212768 0 255 255
8.87875 38.0167 -0.0212263 0 255 255
8.87387 38.0134 -0.0213074 0 255 255
8.86898 38.0101 -0.0215167 0 255 255
8.86402 38.0069 -0.0218527 0 255 255
8.85902 38.0037 -0.0223092 0 255 255
8.85399 38.0005 -0.0228792 0 255 255
8.84896 37.9973 -0.0235504 0 255 255
8.84389 37.9942 -0.0243182 0 255 255
8.83876 37.991 -0.0251805 0 255 255
8.83361 37.9879 -0.0261258 0 255 255
8.82843 37.9848 -0.0271481 0 255 255
8.82324 37.9817 -0.0282419 0 255 255
8.81806 37.9785 -0.029395 0 255 255
8.81282 37.9754 -0.0306177 0 255 255
8.80757 37.9723 -0.031899 0 255 255
8.8023 37.9692 -0.0332353 0 255 255
8.79704 37.966 -0.0346143 0 255 255
8.79173 37.9628 -0.0360493 0 255 255
8.7864 37.9597 -0.0375279 0 255 255
8.78105 37.9565 -0.0390457 0 255 255
8.77567 37.9532 -0.0405976 0 255 255
8.77027 37.95 -0.0421781 0 255 255
8.76487 37.9467 -0.0437716 0 255 255
8.7594 37.9434 -0.0453918 0 255 255
8.7539 37.9401 -0.0470231 0 255 255
8.74835 37.9367 -0.0486598 0 255 255
8.74275 37.9333 -0.0502964 0 255 255
8.73714 37.9299 -0.0519173 0 255 255
8.73144 37.9264 -0.0535372 0 255 255
8.72568 37.9229 -0.05514 0 255 255
8.71987 37.9194 -0.0567193 0 255 255
8.71399 37.9159 -0.0582682 0 255 255
8.70809 37.9124 -0.0597698 0 255 255
8.7021 37.9089 -0.0612345 0 255 255
8.69605 37.9053 -0.0626443 0 255 255
8.68994 37.9017 -0.0639903 0 255 255
8.68378 37.8981 -0.0652638 0 255 255
8.6776 37.8946 -0.0664498 0 255 255
8.6713 37.891 -0.0675621 0 255 255
8.665 37.8874 -0.0685728 0 255 255
8.65864 37.8838 -0.0694831 0 255 255
8.65225 37.8801 -0.0702886 0 255 255
8.63939 37.8729 -0.0715708 0 255 255
8.63288 37.8692 -0.0720503 0 255 255
8.62634 37.8655 -0.0724214 0 255 255
8.61976 37.8618 -0.0726873 0 255 255
8.61319 37.8581 -0.0728522 0 255 255
8.60655 37.8542 -0.0729242 0 255 255
8.59987 37.8504 -0.0729081 0 255 255
8.59318 37.8465 -0.0728094 0 255 255
8.58646 37.8425 -0.0726328 0 255 255
8.57971 37.8385 -0.0723822 0 255 255
8.573 37.8344 -0.0720635 0 255 255
8.56623 37.8303 -0.0716776 0 255 255
8.55946 37.8262 -0.0712324 0 255 255
8.55274 37.8221 -0.0707389 0 255 255
8.54604 37.8181 -0.070204 0 255 255
8.53928 37.814 -0.0696311 0 255 255
8.53261 37.81 -0.0690413 0 255 255
8.52601 37.8061 -0.0684413 0 255 255
8.51948 37.8023 -0.0678396 0 255 255
8.51305 37.7985 -0.0672418 0 255 255
8.50675 37.7949 -0.0666538 0 255 255
8.50051 37.7913 -0.066067 0 255 255
8.49437 37.7879 -0.0654804 0 255 255
8.48831 37.7845 -0.064887 0 255 255
8.48234 37.7811 -0.0642781 0 255 255
8.47644 37.7779 -0.0636442 0 255 255
8.47064 37.7747 -0.0629796 0 255 255
8.46487 37.7715 -0.0622667 0 255 255
8.45917 37.7683 -0.0615002 0 255 255
8.45354 37.7651 -0.0606718 0 255 255
8.44799 37.762 -0.0597745 0 255 255
8.44256 37.7588 -0.0588096 0 255 255
8.4372 37.7556 -0.0577628 0 255 255
8.43194 37.7524 -0.0566406 0 255 255
8.42678 37.7491 -0.0554467 0 255 255
8.42171 37.7458 -0.0541878 0 255 255
8.41675 37.7425 -0.0528808 0 255 255
8.41184 37.7392 -0.0515192 0 255 255
8.407 37.7358 -0.0501216 0 255 255
8.4022 37.7325 -0.0486979 0 255 255
8.39744 37.7291 -0.047258 0 255 255
8.39274 37.7257 -0.0458197 0 255 255
8.38803 37.7224 -0.0443734 0 255 255
8.38333 37.7191 -0.0429358 0 255 255
8.37863 37.7157 -0.0415144 0 255 255
8.37393 37.7124 -0.0401164 0 255 255
8.36924 37.7091 -0.0387575 0 255 255
8.36451 37.7059 -0.0374282 0 255 255
8.35976 37.7027 -0.0361449 0 255 255
8.35498 37.6994 -0.0349152 0 255 255
8.35017 37.6963 -0.0337473 0 255 255
8.34536 37.6931 -0.0326556 0 255 255
8.34049 37.69 -0.0316346 0 255 255
8.33558 37.6869 -0.0306994 0 255 255
8.33067 37.6838 -0.0298622 0 255 255
8.3257 37.6808 -0.0291198 0 255 255
8.32068 37.6777 -0.0284798 0 255 255
8.31567 37.6746 -0.0279552 0 255 255
8.31064 37.6715 -0.0275457 0 255 255
8.30564 37.6685 -0.0272559 0 255 255
8.30061 37.6654 -0.0270845 0 255 255
8.29558 37.6623 -0.027035 0 255 255
8.29059 37.6592 -0.0271068 0 255 255
8.28558 37.656 -0.0272994 0 255 255
8.28058 37.6528 -0.0276101 0 255 255
8.2756 37.6496 -0.0280351 0 255 255
8.27064 37.6464 -0.0285694 0 255 255
8.26573 37.6431 -0.0292032 0 255 255
8.2608 37.6398 -0.0299384 0 255 255
8.2559 37.6365 -0.0307652 0 255 255
8.25101 37.6331 -0.0316773 0 255 255
8.24618 37.6298 -0.0326618 0 255 255
8.24133 37.6264 -0.0337246 0 255 255
8.2365 37.6229 -0.0348536 0 255 255
8.23168 37.6195 -0.0360427 0 255 255
8.22687 37.616 -0.0372866 0 255 255
8.22207 37.6125 -0.0385796 0 255 255
8.21727 37.609 -0.0399167 0 255 255
8.21251 37.6054 -0.0412841 0 255 255
8.20774 37.6019 -0.0426847 0 255 255
8.20292 37.5983 -0.0441228 0 255 255
8.1981 37.5947 -0.045585 0 255 255
8.19328 37.5911 -0.0470586 0 255 255
8.18842 37.5874 -0.0485592 0 255 255
8.18352 37.5836 -0.0500762 0 255 255
8.1786 37.5799 -0.0516096 0 255 255
8.17364 37.5761 -0.05316 0 255 255
8.16867 37.5723 -0.0547183 0 255 255
8.16364 37.5684 -0.0563042 0 255 255
8.15857 37.5644 -0.0579065 0 255 255
8.15345 37.5605 -0.0595221 0 255 255
8.14829 37.5564 -0.0611452 0 255 255
8.1431 37.5524 -0.0627574 0 255 255
8.13778 37.5482 -0.0643776 0 255 255
8.13245 37.5441 -0.0659534 0 255 255
8.12706 37.5398 -0.0674904 0 255 255
8.12153 37.5355 -0.0689918 0 255 255
8.11593 37.5311 -0.0704229 0 255 255
8.11031 37.5267 -0.0717611 0 255 255
8.10464 37.5222 -0.0730017 0 255 255
8.09897 37.5177 -0.0741259 0 255 255
8.09324 37.5131 -0.0751376 0 255 255
8.0875 37.5084 -0.0760217 0 255 255
8.08178 37.5037 -0.0767694 0 255 255
8.07604 37.4988 -0.077389 0 255 255
8.0703 37.4939 -0.0778775 0 255 255
8.06456 37.4889 -0.0782404 0 255 255
8.05884 37.4839 -0.0784855 0 255 255
8.05314 37.4788 -0.078622 0 255 255
8.04742 37.4736 -0.0786617 0 255 255
8.04169 37.4683 -0.078613 0 255 255
8.03595 37.4629 -0.0784843 0 255 255
8.0302 37.4575 -0.0782818 0 255 255
8.02449 37.4521 -0.0780123 0 255 255
8.01874 37.4466 -0.0776756 0 255 255
8.013 37.4411 -0.0772766 0 255 255
8.00732 37.4356 -0.0768222 0 255 255
8.00168 37.4301 -0.076315 0 255 255
7.99607 37.4246 -0.0757583 0 255 255
7.99054 37.4191 -0.0751633 0 255 255
7.9851 37.4137 -0.0745392 0 255 255
7.97976 37.4083 -0.0738952 0 255 255
7.97453 37.403 -0.0732397 0 255 255
7.96944 37.3978 -0.0725833 0 255 255
7.96441 37.3927 -0.0719223 0 255 255
7.95946 37.3876 -0.0712625 0 255 255
7.95459 37.3827 -0.0706032 0 255 255
7.94977 37.3777 -0.0699413 0 255 255
7.94499 37.3729 -0.0692708 0 255 255
7.94027 37.3682 -0.0685885 0 255 255
7.93554 37.3635 -0.0678765 0 255 255
7.93081 37.3589 -0.067129 0 255 255
7.92608 37.3543 -0.066336 0 255 255
7.92134 37.3499 -0.0654887 0 255 255
7.91662 37.3455 -0.0645851 0 255 255
7.91187 37.3413 -0.0636077 0 255 255
7.90713 37.3371 -0.0625646 0 255 255
7.90233 37.333 -0.0614338 0 255 255
7.89759 37.329 -0.0602442 0 255 255
7.89281 37.3251 -0.0589784 0 255 255
7.88804 37.3212 -0.0576504 0 255 255
7.88327 37.3173 -0.0562696 0 255 255
7.87851 37.3135 -0.0548465 0 255 255
7.87377 37.3096 -0.0533927 0 255 255
7.86907 37.3058 -0.0519288 0 255 255
7.86438 37.302 -0.0504479 0 255 255
7.85971 37.2982 -0.0489693 0 255 255
7.85508 37.2944 -0.0475027 0 255 255
7.85052 37.2905 -0.0460664 0 255 255
7.84596 37.2867 -0.0446514 0 255 255
7.84145 37.2828 -0.0432759 0 255 255
7.83698 37.2789 -0.0419486 0 255 255
7.83255 37.2749 -0.0406779 0 255 255
7.82817 37.271 -0.039479 0 255 255
7.82379 37.267 -0.0383443 0 255 255
7.81943 37.263 -0.0372882 0 255 255
7.81507 37.259 -0.0363174 0 255 255
7.8107 37.2549 -0.0354381 0 255 255
7.80633 37.2508 -0.0346563 0 255 255
7.80193 37.2468 -0.0339779 0 255 255
7.79754 37.2427 -0.0334113 0 255 255
7.7931 37.2386 -0.0329545 0 255 255
7.78862 37.2345 -0.0326155 0 255 255
7.78411 37.2304 -0.0323977 0 255 255
7.77956 37.2263 -0.0323031 0 255 255
7.775 37.2222 -0.0323319 0 255 255
7.77039 37.2181 -0.0324839 0 255 255
7.76574 37.214 -0.0327569 0 255 255
7.76106 37.2099 -0.0331474 0 255 255
7.75638 37.2059 -0.033647 0 255 255
7.75164 37.2018 -0.0342565 0 255 255
7.74688 37.1977 -0.034967 0 255 255
7.74209 37.1936 -0.0357725 0 255 255
7.73729 37.1895 -0.0366673 0 255 255
7.7325 37.1855 -0.0376396 0 255 255
7.72766 37.1814 -0.0386965 0 255 255
7.72281 37.1773 -0.0398278 0 255 255
7.71796 37.1732 -0.0410218 0 255 255
7.71304 37.1691 -0.0422975 0 255 255
7.70813 37.165 -0.0436286 0 255 255
7.70321 37.1609 -0.045019 0 255 255
7.69826 37.1567 -0.0464653 0 255 255
7.69329 37.1526 -0.0479635 0 255 255
7.6883 37.1484 -0.0495094 0 255 255
7.68329 37.1442 -0.0510979 0 255 255
7.67829 37.14 -0.0527133 0 255 255
7.67326 37.1358 -0.0543591 0 255 255
7.66818 37.1316 -0.0560389 0 255 255
7.66306 37.1273 -0.0577351 0 255 255
7.65792 37.123 -0.05944 0 255 255
7.65278 37.1187 -0.0611354 0 255 255
7.64756 37.1143 -0.0628347 0 255 255
7.6423 37.1099 -0.0645196 0 255 255
7.63699 37.1055 -0.0661824 0 255 255
7.63164 37.1011 -0.0678148 0 255 255
7.62626 37.0967 -0.0693986 0 255 255
7.62081 37.0923 -0.0709442 0 255 255
7.6153 37.0878 -0.0724321 0 255 255
7.60975 37.0834 -0.0738528 0 255 255
7.60415 37.0789 -0.0751972 0 255 255
7.59854 37.0745 -0.0764492 0 255 255
7.59285 37.07 -0.0776163 0 255 255
7.58711 37.0656 -0.0786833 0 255 255
7.58133 37.0611 -0.0796439 0 255 255
7.57549 37.0566 -0.080493 0 255 255
7.56965 37.0521 -0.0812223 0 255 255
7.56371 37.0475 -0.0818382 0 255 255
7.55772 37.043 -0.082335 0 255 255
7.55167 37.0384 -0.0827132 0 255 255
7.54557 37.0338 -0.082975 0 255 255
7.53945 37.0291 -0.0831234 0 255 255
7.53325 37.0244 -0.0831645 0 255 255
7.52701 37.0197 -0.0831015 0 255 255
7.52073 37.0149 -0.0829388 0 255 255
7.51442 37.0102 -0.0826806 0 255 255
7.50181 37.0005 -0.0818962 0 255 255
7.49548 36.9957 -0.0813728 0 255 255
7.48915 36.9908 -0.0807707 0 255 255
7.48285 36.986 -0.0800986 0 255 255
7.47658 36.9812 -0.0793668 0 255 255
7.4704 36.9764 -0.0785915 0 255 255
7.46425 36.9718 -0.0777742 0 255 255
7.45819 36.9672 -0.0769292 0 255 255
7.45222 36.9626 -0.0760646 0 255 255
7.44636 36.9582 -0.0751854 0 255 255
7.44064 36.9539 -0.0743 0 255 255
7.43498 36.9496 -0.0733978 0 255 255
7.42942 36.9454 -0.0724829 0 255 255
7.42393 36.9413 -0.0715527 0 255 255
7.41852 36.9373 -0.0706038 0 255 255
7.41321 36.9333 -0.0696381 0 255 255
7.40793 36.9293 -0.0686385 0 255 255
7.40272 36.9254 -0.067605 0 255 255
7.39757 36.9215 -0.0665315 0 255 255
7.39251 36.9175 -0.065412 0 255 255
7.38755 36.9136 -0.0642489 0 255 255
7.38262 36.9096 -0.0630173 0 255 255
7.37783 36.9057 -0.061747 0 255 255
7.37309 36.9017 -0.0604172 0 255 255
7.36842 36.8978 -0.0590407 0 255 255
7.36382 36.8938 -0.0576245 0 255 255
7.35928 36.8898 -0.0561774 0 255 255
7.35482 36.8858 -0.0547178 0 255 255
7.35037 36.8819 -0.0532373 0 255 255
7.34595 36.8779 -0.0517542 0 255 255
7.34158 36.874 -0.0502868 0 255 255
7.33721 36.87 -0.048825 0 255 255
7.33284 36.8661 -0.0473862 0 255 255
7.32848 36.8623 -0.0459779 0 255 255
7.32412 36.8584 -0.0446075 0 255 255
7.31974 36.8546 -0.0432821 0 255 255
7.31539 36.8508 -0.0420163 0 255 255
7.31098 36.847 -0.0408009 0 255 255
7.30656 36.8433 -0.0396505 0 255 255
7.30211 36.8396 -0.0385719 0 255 255
7.29766 36.8359 -0.0375781 0 255 255
7.29315 36.8323 -0.0366639 0 255 255
7.28861 36.8286 -0.0358429 0 255 255
7.28404 36.825 -0.0351216 0 255 255
7.27946 36.8214 -0.0345054 0 255 255
7.27485 36.8178 -0.0339991 0 255 255
7.27022 36.8142 -0.0336062 0 255 255
7.26562 36.8106 -0.0333305 0 255 255
7.26098 36.807 -0.0331702 0 255 255
7.25635 36.8034 -0.0331282 0 255 255
7.25172 36.7997 -0.0332041 0 255 255
7.24713 36.7961 -0.0333948 0 255 255
7.24254 36.7924 -0.0336997 0 255 255
7.23796 36.7887 -0.0341139 0 255 255
7.2334 36.785 -0.0346323 0 255 255
7.22887 36.7812 -0.0352492 0 255 255
7.22439 36.7774 -0.0359538 0 255 255
7.21991 36.7736 -0.036749 0 255 255
7.21545 36.7697 -0.0376249 0 255 255
7.21102 36.7658 -0.0385758 0 255 255
7.20661 36.7619 -0.0395967 0 255 255
7.2022 36.7579 -0.0406897 0 255 255
7.19785 36.7539 -0.0418296 0 255 255
7.1935 36.7499 -0.0430333 0 255 255
7.18915 36.7459 -0.0442904 0 255 255
7.18484 36.7419 -0.0455901 0 255 255
7.1805 36.7378 -0.0469463 0 255 255
7.17618 36.7337 -0.0483412 0 255 255
7.17182 36.7296 -0.0497908 0 255 255
7.16744 36.7254 -0.0512859 0 255 255
7.16304 36.7212 -0.0528253 0 255 255
7.15861 36.717 -0.0544075 0 255 255
7.15416 36.7128 -0.05602 0 255 255
7.14965 36.7085 -0.0576795 0 255 255
7.14508 36.7042 -0.0593715 0 255 255
7.14046 36.6998 -0.0610901 0 255 255
7.13578 36.6954 -0.0628282 0 255 255
7.13106 36.691 -0.0645663 0 255 255
7.12625 36.6865 -0.0663158 0 255 255
7.12138 36.682 -0.0680547 0 255 255
7.11644 36.6773 -0.0697701 0 255 255
7.11147 36.6727 -0.0714385 0 255 255
7.10642 36.668 -0.0730668 0 255 255
7.10133 36.6632 -0.0746308 0 255 255
7.09619 36.6583 -0.0761179 0 255 255
7.09102 36.6534 -0.0775164 0 255 255
7.08583 36.6484 -0.0788162 0 255 255
7.08067 36.6433 -0.0800021 0 255 255
7.07547 36.6382 -0.0810825 0 255 255
7.07027 36.633 -0.0820458 0 255 255
7.06509 36.6277 -0.0828904 0 255 255
7.05992 36.6223 -0.083617 0 255 255
7.0548 36.6169 -0.0842252 0 255 255
7.04967 36.6114 -0.0847274 0 255 255
7.04455 36.6058 -0.0851259 0 255 255
7.03944 36.6001 -0.0854282 0 255 255
7.03434 36.5944 -0.0856425 0 255 255
7.02927 36.5886 -0.0857767 0 255 255
7.02417 36.5826 -0.0858408 0 255 255
7.01905 36.5766 -0.0858411 0 255 255
7.01392 36.5706 -0.0857838 0 255 255
7.00878 36.5644 -0.0856732 0 255 255
7.00363 36.5583 -0.085512 0 255 255
6.99848 36.5521 -0.0853012 0 255 255
6.99333 36.5458 -0.085041 0 255 255
6.98819 36.5396 -0.0847313 0 255 255
6.98312 36.5334 -0.0843749 0 255 255
6.97807 36.5273 -0.0839691 0 255 255
6.97312 36.5212 -0.0835217 0 255 255
6.96821 36.5152 -0.0830315 0 255 255
6.9634 36.5092 -0.0825053 0 255 255
6.95869 36.5034 -0.081947 0 255 255
6.9541 36.4977 -0.0813625 0 255 255
6.94955 36.4921 -0.0807411 0 255 255
6.94511 36.4866 -0.0800928 0 255 255
6.94075 36.4813 -0.079411 0 255 255
6.93645 36.476 -0.0786924 0 255 255
6.93221 36.4708 -0.0779333 0 255 255
6.92802 36.4657 -0.0771349 0 255 255
6.92382 36.4606 -0.0762838 0 255 255
6.91962 36.4557 -0.0753818 0 255 255
6.91542 36.4508 -0.0744261 0 255 255
6.91121 36.4459 -0.0734142 0 255 255
6.90698 36.4412 -0.0723443 0 255 255
6.90273 36.4365 -0.0712152 0 255 255
6.89846 36.4319 -0.0700268 0 255 255
6.8942 36.4275 -0.0687884 0 255 255
6.8899 36.423 -0.0674875 0 255 255
6.8856 36.4186 -0.0661362 0 255 255
6.88132 36.4143 -0.0647491 0 255 255
6.87702 36.41 -0.063316 0 255 255
6.87272 36.4056 -0.061853 0 255 255
6.86844 36.4013 -0.0603682 0 255 255
6.86421 36.3971 -0.0588793 0 255 255
6.85998 36.3927 -0.0573758 0 255 255
6.85577 36.3884 -0.0558747 0 255 255
6.8516 36.3841 -0.0543834 0 255 255
6.84747 36.3797 -0.0529096 0 255 255
6.84339 36.3753 -0.0514607 0 255 255
6.83937 36.371 -0.0500531 0 255 255
6.83537 36.3665 -0.0486772 0 255 255
6.83143 36.3621 -0.0473502 0 255 255
6.82755 36.3576 -0.0460879 0 255 255
6.82371 36.3531 -0.0448902 0 255 255
6.81988 36.3486 -0.0437586 0 255 255
6.81606 36.344 -0.0427025 0 255 255
6.81228 36.3395 -0.0417432 0 255 255
6.80851 36.3349 -0.0408822 0 255 255
6.80475 36.3303 -0.040128 0 255 255
6.80099 36.3257 -0.0394883 0 255 255
6.79724 36.3211 -0.0389729 0 255 255
6.79345 36.3165 -0.0385814 0 255 255
6.78964 36.3119 -0.0383215 0 255 255
6.7858 36.3074 -0.0381958 0 255 255
6.78194 36.3028 -0.0382046 0 255 255
6.77806 36.2982 -0.0383449 0 255 255
6.77413 36.2937 -0.038614 0 255 255
6.76613 36.2846 -0.0395128 0 255 255
6.7621 36.2801 -0.0401295 0 255 255
6.758 36.2756 -0.0408526 0 255 255
6.75385 36.2711 -0.0416683 0 255 255
6.7497 36.2667 -0.0425614 0 255 255
6.74546 36.2622 -0.0435406 0 255 255
6.74121 36.2577 -0.0445813 0 255 255
6.73693 36.2532 -0.0456836 0 255 255
6.73263 36.2488 -0.046843 0 255 255
6.72832 36.2444 -0.0480487 0 255 255
6.72396 36.2399 -0.0493132 0 255 255
6.7196 36.2355 -0.0506188 0 255 255
6.71519 36.2311 -0.0519803 0 255 255
6.71076 36.2266 -0.0533884 0 255 255
6.7063 36.2222 -0.0548418 0 255 255
6.70183 36.2177 -0.0563386 0 255 255
6.69737 36.2132 -0.0578669 0 255 255
6.69287 36.2087 -0.0594425 0 255 255
6.68835 36.2042 -0.0610521 0 255 255
6.68381 36.1996 -0.062691 0 255 255
6.67926 36.195 -0.0643538 0 255 255
6.67471 36.1904 -0.0660244 0 255 255
6.67013 36.1858 -0.0677096 0 255 255
6.66551 36.1811 -0.0694073 0 255 255
6.66085 36.1763 -0.0711026 0 255 255
6.65615 36.1715 -0.0727874 0 255 255
6.65145 36.1667 -0.0744425 0 255 255
6.64667 36.1618 -0.0760784 0 255 255
6.64185 36.1568 -0.0776742 0 255 255
6.63698 36.1519 -0.0792186 0 255 255
6.63206 36.1469 -0.0807005 0 255 255
6.6271 36.1419 -0.0821099 0 255 255
6.62208 36.1368 -0.0834376 0 255 255
6.61705 36.1318 -0.0846688 0 255 255
6.61193 36.1267 -0.0858126 0 255 255
6.60675 36.1216 -0.0868563 0 255 255
6.60152 36.1165 -0.0877965 0 255 255
6.59626 36.1114 -0.0886262 0 255 255
6.59091 36.1062 -0.0893548 0 255 255
6.58551 36.101 -0.0899771 0 255 255
6.58004 36.0958 -0.0904944 0 255 255
6.57453 36.0906 -0.0909081 0 255 255
6.569 36.0853 -0.0912184 0 255 255
6.5634 36.08 -0.0914297 0 255 255
6.55777 36.0747 -0.0915391 0 255 255
6.5521 36.0693 -0.0915439 0 255 255
6.54646 36.064 -0.0914413 0 255 255
6.54073 36.0585 -0.0912238 0 255 255
6.53503 36.0531 -0.0908905 0 255 255
6.52933 36.0477 -0.0904379 0 255 255
6.52367 36.0423 -0.0898692 0 255 255
6.518 36.037 -0.0891791 0 255 255
6.51236 36.0318 -0.0883753 0 255 255
6.50675 36.0266 -0.0874656 0 255 255
6.50119 36.0216 -0.0864606 0 255 255
6.4957 36.0167 -0.0853735 0 255 255
6.49027 36.0119 -0.084219 0 255 255
6.48492 36.0072 -0.0830127 0 255 255
6.47965 36.0027 -0.0817706 0 255 255
6.47449 35.9983 -0.0805163 0 255 255
6.46937 35.9939 -0.0792489 0 255 255
6.46433 35.9896 -0.0779897 0 255 255
6.45934 35.9854 -0.0767493 0 255 255
6.45445 35.9813 -0.0755425 0 255 255
6.44959 35.9771 -0.0743574 0 255 255
6.4448 35.9729 -0.0732004 0 255 255
6.44006 35.9688 -0.0720667 0 255 255
6.4354 35.9646 -0.0709482 0 255 255
6.4308 35.9604 -0.0698356 0 255 255
6.42627 35.9562 -0.0687191 0 255 255
6.42183 35.952 -0.0675968 0 255 255
6.41742 35.9478 -0.0664476 0 255 255
6.41307 35.9435 -0.0652733 0 255 255
6.40875 35.9392 -0.0640714 0 255 255
6.4045 35.9349 -0.0628491 0 255 255
6.40025 35.9306 -0.0615929 0 255 255
6.39602 35.9263 -0.0603133 0 255 255
6.39181 35.9221 -0.0590145 0 255 255
6.38762 35.9178 -0.0577014 0 255 255
6.38347 35.9136 -0.0563876 0 255 255
6.37931 35.9095 -0.0550626 0 255 255
6.37515 35.9054 -0.0537407 0 255 255
6.37099 35.9013 -0.0524285 0 255 255
6.36684 35.8973 -0.0511331 0 255 255
6.36267 35.8934 -0.0498621 0 255 255
6.3585 35.8895 -0.0486235 0 255 255
6.35432 35.8856 -0.0474259 0 255 255
6.35011 35.8818 -0.0462783 0 255 255
6.34591 35.8781 -0.045197 0 255 255
6.34169 35.8744 -0.0441847 0 255 255
6.33742 35.8707 -0.0432458 0 255 255
6.33312 35.867 -0.0423967 0 255 255
6.32881 35.8633 -0.0416465 0 255 255
6.32447 35.8597 -0.041003 0 255 255
6.32016 35.856 -0.0404755 0 255 255
6.31583 35.8524 -0.0400646 0 255 255
6.31151 35.8487 -0.0397738 0 255 255
6.30716 35.845 -0.0396044 0 255 255
6.30283 35.8413 -0.0395588 0 255 255
6.29853 35.8376 -0.0396351 0 255 255
6.29423 35.8338 -0.0398314 0 255 255
6.28995 35.8301 -0.0401432 0 255 255
6.28569 35.8262 -0.0405651 0 255 255
6.28147 35.8224 -0.0410902 0 255 255
6.27729 35.8185 -0.0417112 0 255 255
6.27316 35.8146 -0.0424154 0 255 255
6.26904 35.8107 -0.0432035 0 255 255
6.26498 35.8068 -0.0440581 0 255 255
6.26093 35.8028 -0.0449827 0 255 255
6.25689 35.7988 -0.0459719 0 255 255
6.25292 35.7948 -0.0470013 0 255 255
6.24896 35.7907 -0.048084 0 255 255
6.24501 35.7866 -0.0492085 0 255 255
6.24109 35.7825 -0.0503699 0 255 255
6.23717 35.7784 -0.0515636 0 255 255
6.23329 35.7743 -0.0527778 0 255 255
6.22939 35.7701 -0.054024 0 255 255
6.22548 35.7658 -0.0552921 0 255 255
6.22156 35.7616 -0.0565801 0 255 255
6.21765 35.7573 -0.0578784 0 255 255
6.21369 35.753 -0.0592025 0 255 255
6.2097 35.7487 -0.0605435 0 255 255
6.20569 35.7443 -0.061901 0 255 255
6.20163 35.7399 -0.0632746 0 255 255
6.19752 35.7354 -0.064672 0 255 255
6.19342 35.7309 -0.0660656 0 255 255
6.18926 35.7264 -0.0674786 0 255 255
6.18505 35.7218 -0.0688986 0 255 255
6.18084 35.7172 -0.0703117 0 255 255
6.17656 35.7124 -0.0717289 0 255 255
6.17224 35.7077 -0.0731339 0 255 255
6.16791 35.7028 -0.0745091 0 255 255
6.16352 35.6979 -0.0758616 0 255 255
6.15909 35.6929 -0.0771722 0 255 255
6.15463 35.6878 -0.07843 0 255 255
6.15018 35.6827 -0.0796173 0 255 255
6.14567 35.6774 -0.0807389 0 255 255
6.14113 35.672 -0.0817784 0 255 255
6.13657 35.6666 -0.082728 0 255 255
6.132 35.6611 -0.0835817 0 255 255
6.12743 35.6555 -0.0843304 0 255 255
6.12282 35.6499 -0.0849805 0 255 255
6.11819 35.6442 -0.0855255 0 255 255
6.11355 35.6384 -0.0859654 0 255 255
6.10889 35.6326 -0.0863016 0 255 255
6.10422 35.6267 -0.0865364 0 255 255
6.09952 35.6208 -0.0866734 0 255 255
6.09481 35.6148 -0.0867172 0 255 255
6.09007 35.6087 -0.086673 0 255 255
6.0853 35.6026 -0.086547 0 255 255
6.08052 35.5964 -0.0863461 0 255 255
6.0757 35.5902 -0.0860769 0 255 255
6.0709 35.584 -0.0857482 0 255 255
6.06604 35.5776 -0.0853616 0 255 255
6.06117 35.5713 -0.084923 0 255 255
6.05629 35.5649 -0.0844358 0 255 255
6.05144 35.5585 -0.0839054 0 255 255
6.04657 35.552 -0.0833274 0 255 255
6.04173 35.5456 -0.0827074 0 255 255
6.03695 35.5392 -0.0820489 0 255 255
6.03223 35.5328 -0.081357 0 255 255
6.02759 35.5265 -0.0806379 0 255 255
6.02307 35.5203 -0.0799038 0 255 255
6.01863 35.5141 -0.0791524 0 255 255
6.01429 35.5081 -0.0783938 0 255 255
6.01006 35.5021 -0.0776313 0 255 255
6.00592 35.4963 -0.076866 0 255 255
6.0019 35.4906 -0.0761017 0 255 255
5.99792 35.485 -0.0753272 0 255 255
5.99401 35.4794 -0.0745445 0 255 255
5.99013 35.474 -0.0737511 0 255 255
5.98629 35.4687 -0.0729493 0 255 255
5.98243 35.4634 -0.0721264 0 255 255
5.97855 35.4582 -0.0712847 0 255 255
5.97465 35.4531 -0.0704214 0 255 255
5.9707 35.4481 -0.0695337 0 255 255
5.96672 35.4431 -0.0686187 0 255 255
5.96269 35.4383 -0.0676736 0 255 255
5.95864 35.4335 -0.0667022 0 255 255
5.95453 35.4289 -0.0656909 0 255 255
5.95039 35.4243 -0.064645 0 255 255
5.94623 35.4197 -0.0635654 0 255 255
5.94209 35.4153 -0.0624611 0 255 255
5.93791 35.4108 -0.0613216 0 255 255
5.93375 35.4064 -0.0601577 0 255 255
5.9296 35.4021 -0.0589746 0 255 255
5.92547 35.3977 -0.0577775 0 255 255
5.9214 35.3934 -0.0565793 0 255 255
5.91732 35.389 -0.055363 0 255 255
5.9133 35.3847 -0.054156 0 255 255
5.90936 35.3803 -0.0529636 0 255 255
5.90546 35.376 -0.0517841 0 255 255
5.90159 35.3716 -0.050617 0 255 255
5.8978 35.3672 -0.0494839 0 255 255
5.89403 35.3628 -0.0483783 0 255 255
5.89031 35.3584 -0.0473153 0 255 255
5.88662 35.3539 -0.0463033 0 255 255
5.88299 35.3494 -0.0453562 0 255 255
5.87936 35.3449 -0.0444713 0 255 255
5.87573 35.3404 -0.0436639 0 255 255
5.87211 35.3358 -0.0429433 0 255 255
5.86848 35.3313 -0.0423186 0 255 255
5.86487 35.3267 -0.0418011 0 255 255
5.86121 35.3222 -0.041392 0 255 255
5.85752 35.3176 -0.041101 0 255 255
5.85381 35.3131 -0.0409324 0 255 255
5.85009 35.3085 -0.0408887 0 255 255
5.84631 35.304 -0.0409697 0 255 255
5.8425 35.2994 -0.0411741 0 255 255
5.83864 35.2949 -0.0414984 0 255 255
5.83474 35.2904 -0.0419372 0 255 255
5.8308 35.2859 -0.0424841 0 255 255
5.82682 35.2814 -0.0431319 0 255 255
5.82281 35.2769 -0.043868 0 255 255
5.81874 35.2724 -0.0446941 0 255 255
5.81463 35.268 -0.0455986 0 255 255
5.81048 35.2635 -0.0465751 0 255 255
5.80628 35.2591 -0.0476177 0 255 255
5.80205 35.2546 -0.0487215 0 255 255
5.79782 35.2502 -0.0498748 0 255 255
5.79352 35.2458 -0.0510886 0 255 255
5.78918 35.2413 -0.0523531 0 255 255
5.78484 35.2369 -0.0536574 0 255 255
5.78045 35.2324 -0.0550158 0 255 255
5.77602 35.2279 -0.0564179 0 255 255
5.77157 35.2234 -0.0578618 0 255 255
5.76709 35.2189 -0.0593451 0 255 255
5.76255 35.2144 -0.0608748 0 255 255
5.75805 35.2099 -0.0624196 0 255 255
5.75352 35.2053 -0.0639943 0 255 255
5.74893 35.2007 -0.0656048 0 255 255
5.74433 35.1961 -0.0672357 0 255 255
5.73969 35.1914 -0.0688807 0 255 255
5.73506 35.1867 -0.0705219 0 255 255
5.72563 35.1772 -0.073813 0 255 255
5.72087 35.1723 -0.0754431 0 255 255
5.71608 35.1674 -0.0770512 0 255 255
5.71128 35.1625 -0.0786173 0 255 255
5.70642 35.1575 -0.0801505 0 255 255
5.70153 35.1524 -0.0816305 0 255 255
5.6966 35.1473 -0.0830474 0 255 255
5.69164 35.1422 -0.084392 0 255 255
5.68667 35.137 -0.0856486 0 255 255
5.68164 35.1318 -0.0868263 0 255 255
5.67658 35.1266 -0.0879112 0 255 255
5.67147 35.1213 -0.0888989 0 255 255
5.66635 35.1161 -0.0897804 0 255 255
5.66111 35.1108 -0.090568 0 255 255
5.65585 35.1055 -0.0912442 0 255 255
5.65051 35.1002 -0.0918128 0 255 255
5.64511 35.095 -0.092274 0 255 255
5.63962 35.0897 -0.0926293 0 255 255
5.63405 35.0844 -0.0928808 0 255 255
5.62843 35.0791 -0.0930309 0 255 255
5.6227 35.0738 -0.0930837 0 255 255
5.6169 35.0685 -0.093039 0 255 255
5.61104 35.0632 -0.0928964 0 255 255
5.60517 35.0578 -0.0926564 0 255 255
5.59923 35.0525 -0.0923147 0 255 255
5.58727 35.0418 -0.09133 0 255 255
5.58127 35.0364 -0.0906888 0 255 255
5.57527 35.0311 -0.089953 0 255 255
5.56932 35.0259 -0.089135 0 255 255
5.56335 35.0207 -0.0882337 0 255 255
5.55742 35.0156 -0.0872657 0 255 255
5.55154 35.0106 -0.086244 0 255 255
5.54572 35.0057 -0.0851824 0 255 255
5.53998 35.0009 -0.0840943 0 255 255
5.53436 34.9962 -0.082999 0 255 255
5.52879 34.9916 -0.0818942 0 255 255
5.52331 34.987 -0.0807959 0 255 255
5.51791 34.9826 -0.079712 0 255 255
5.51259 34.9782 -0.0786482 0 255 255
5.50737 34.9739 -0.0776142 0 255 255
5.50219 34.9696 -0.076598 0 255 255
5.49707 34.9653 -0.0756039 0 255 255
5.492 34.961 -0.0746268 0 255 255
5.48701 34.9567 -0.0736592 0 255 255
5.4821 34.9524 -0.0726975 0 255 255
5.47724 34.9481 -0.0717193 0 255 255
5.47245 34.9438 -0.0707208 0 255 255
5.46772 34.9394 -0.0696932 0 255 255
5.46309 34.9351 -0.0686371 0 255 255
5.45849 34.9307 -0.0675361 0 255 255
5.45394 34.9264 -0.0663959 0 255 255
5.44943 34.922 -0.0652188 0 255 255
5.44497 34.9176 -0.0640086 0 255 255
5.44054 34.9132 -0.0627709 0 255 255
5.43616 34.9089 -0.0615197 0 255 255
5.43177 34.9045 -0.0602459 0 255 255
5.42741 34.9002 -0.058964 0 255 255
5.42306 34.8959 -0.0576808 0 255 255
5.41872 34.8916 -0.0564034 0 255 255
5.41441 34.8874 -0.0551466 0 255 255
5.41008 34.8832 -0.0539022 0 255 255
5.40575 34.879 -0.0526857 0 255 255
5.40142 34.8748 -0.0515051 0 255 255
5.39709 34.8707 -0.0503687 0 255 255
5.39274 34.8665 -0.0492851 0 255 255
5.38841 34.8625 -0.0482693 0 255 255
5.38405 34.8584 -0.0473173 0 255 255
5.37967 34.8543 -0.0464444 0 255 255
5.37528 34.8502 -0.0456589 0 255 255
5.37091 34.8462 -0.0449725 0 255 255
5.36653 34.8422 -0.0443867 0 255 255
5.36214 34.8382 -0.043907 0 255 255
5.3577 34.8341 -0.0435333 0 255 255
5.35331 34.8301 -0.0432776 0 255 255
5.34889 34.8261 -0.0431353 0 255 255
5.34448 34.822 -0.0431085 0 255 255
5.34008 34.818 -0.043196 0 255 255
5.33568 34.8139 -0.0433956 0 255 255
5.3313 34.8098 -0.0437033 0 255 255
5.32696 34.8058 -0.0441113 0 255 255
5.32262 34.8017 -0.0446182 0 255 255
5.31829 34.7975 -0.0452149 0 255 255
5.31398 34.7934 -0.0458939 0 255 255
5.30969 34.7892 -0.0466478 0 255 255
5.30542 34.785 -0.0474701 0 255 255
5.30121 34.7809 -0.0483489 0 255 255
5.29698 34.7766 -0.0492902 0 255 255
5.29279 34.7724 -0.0502844 0 255 255
5.28861 34.7681 -0.0513283 0 255 255
5.28447 34.7638 -0.0524119 0 255 255
5.28033 34.7594 -0.0535458 0 255 255
5.27619 34.7551 -0.0547204 0 255 255
5.27206 34.7507 -0.0559324 0 255 255
5.26792 34.7462 -0.0571781 0 255 255
5.26378 34.7417 -0.0584537 0 255 255
5.25962 34.7372 -0.059756 0 255 255
5.25546 34.7327 -0.0610734 0 255 255
5.25125 34.7281 -0.0624197 0 255 255
5.247 34.7235 -0.0637846 0 255 255
5.24272 34.7188 -0.0651665 0 255 255
5.23842 34.7141 -0.0665558 0 255 255
5.23405 34.7093 -0.0679695 0 255 255
5.22965 34.7045 -0.0693995 0 255 255
5.2252 34.6996 -0.0708461 0 255 255
5.22071 34.6947 -0.0723091 0 255 255
5.21622 34.6897 -0.0737776 0 255 255
5.21166 34.6847 -0.0752665 0 255 255
5.20706 34.6795 -0.0767612 0 255 255
5.20242 34.6743 -0.078254 0 255 255
5.19773 34.6691 -0.0797354 0 255 255
5.19303 34.6638 -0.0811853 0 255 255
5.18825 34.6584 -0.0826097 0 255 255
5.18345 34.6529 -0.0839786 0 255 255
5.17857 34.6473 -0.0852965 0 255 255
5.17362 34.6416 -0.0865498 0 255 255
5.1687 34.6359 -0.087704 0 255 255
5.16373 34.6301 -0.0887694 0 255 255
5.15874 34.6242 -0.0897277 0 255 255
5.15373 34.6183 -0.0905691 0 255 255
5.14873 34.6123 -0.091286 0 255 255
5.14376 34.6063 -0.0918706 0 255 255
5.13877 34.6002 -0.0923287 0 255 255
5.13379 34.594 -0.0926582 0 255 255
5.12879 34.5878 -0.092865 0 255 255
5.12386 34.5816 -0.0929535 0 255 255
5.11894 34.5754 -0.0929357 0 255 255
5.114 34.5691 -0.0928201 0 255 255
5.10906 34.5628 -0.0926159 0 255 255
5.10414 34.5564 -0.0923321 0 255 255
5.09922 34.5501 -0.0919777 0 255 255
5.09436 34.5438 -0.091564 0 255 255
5.0895 34.5374 -0.0910947 0 255 255
5.08469 34.531 -0.0905808 0 255 255
5.07993 34.5247 -0.0900315 0 255 255
5.07524 34.5185 -0.0894557 0 255 255
5.07063 34.5123 -0.088862 0 255 255
5.06611 34.5061 -0.0882578 0 255 255
5.0617 34.5001 -0.0876522 0 255 255
5.05735 34.4942 -0.0870402 0 255 255
5.05311 34.4884 -0.0864292 0 255 255
5.04889 34.4826 -0.0858051 0 255 255
5.04477 34.4769 -0.0851749 0 255 255
5.04068 34.4713 -0.0845292 0 255 255
5.03663 34.4658 -0.0838619 0 255 255
5.0326 34.4604 -0.0831672 0 255 255
5.02856 34.4551 -0.082439 0 255 255
5.02451 34.4499 -0.0816717 0 255 255
5.02046 34.4448 -0.0808652 0 255 255
5.01634 34.4397 -0.0800042 0 255 255
5.01218 34.4348 -0.0790887 0 255 255
5.00798 34.43 -0.0781148 0 255 255
5.00373 34.4253 -0.0770799 0 255 255
4.99947 34.4206 -0.0759901 0 255 255
4.99515 34.4161 -0.0748329 0 255 255
4.9908 34.4116 -0.073618 0 255 255
4.98644 34.4071 -0.0723501 0 255 255
4.98207 34.4027 -0.0710354 0 255 255
4.97771 34.3983 -0.069681 0 255 255
4.9734 34.394 -0.0683036 0 255 255
4.96909 34.3896 -0.0668944 0 255 255
4.96062 34.3808 -0.0640457 0 255 255
4.95646 34.3764 -0.0626061 0 255 255
4.95235 34.3719 -0.0611691 0 255 255
4.94831 34.3674 -0.0597427 0 255 255
4.94433 34.3629 -0.0583345 0 255 255
4.94043 34.3583 -0.0569516 0 255 255
4.93662 34.3537 -0.0556094 0 255 255
4.93285 34.3491 -0.0542989 0 255 255
4.92914 34.3444 -0.0530367 0 255 255
4.92546 34.3397 -0.0518317 0 255 255
4.92184 34.335 -0.0506999 0 255 255
4.91821 34.3303 -0.0496367 0 255 255
4.91459 34.3255 -0.0486585 0 255 255
4.91097 34.3207 -0.0477739 0 255 255
4.90734 34.3159 -0.0469911 0 255 255
4.90371 34.3112 -0.0463213 0 255 255
4.90003 34.3064 -0.0457633 0 255 255
4.89634 34.3016 -0.0453295 0 255 255
4.8926 34.2968 -0.045019 0 255 255
4.88881 34.2921 -0.0448378 0 255 255
4.88499 34.2873 -0.0447863 0 255 255
4.88114 34.2826 -0.0448625 0 255 255
4.87723 34.2778 -0.0450638 0 255 255
4.87328 34.2731 -0.0453852 0 255 255
4.86929 34.2684 -0.0458203 0 255 255
4.86527 34.2638 -0.0463619 0 255 255
4.86123 34.2591 -0.0469984 0 255 255
4.85714 34.2545 -0.0477304 0 255 255
4.85302 34.2498 -0.0485475 0 255 255
4.84888 34.2452 -0.0494431 0 255 255
4.84471 34.2406 -0.0504116 0 255 255
4.84054 34.236 -0.0514479 0 255 255
4.83634 34.2313 -0.0525475 0 255 255
4.83216 34.2268 -0.0536995 0 255 255
4.82794 34.2221 -0.0549149 0 255 255
4.82371 34.2175 -0.056184 0 255 255
4.81947 34.2129 -0.0575043 0 255 255
4.81523 34.2083 -0.0588644 0 255 255
4.81096 34.2036 -0.0602776 0 255 255
4.80667 34.1989 -0.0617314 0 255 255
4.79803 34.1895 -0.064742 0 255 255
4.79371 34.1847 -0.0662832 0 255 255
4.7893 34.1799 -0.0678668 0 255 255
4.78492 34.1751 -0.069448 0 255 255
4.78048 34.1702 -0.0710504 0 255 255
4.77599 34.1653 -0.0726585 0 255 255
4.77149 34.1604 -0.0742568 0 255 255
4.76691 34.1554 -0.0758589 0 255 255
4.76229 34.1504 -0.0774482 0 255 255
4.75763 34.1454 -0.0790173 0 255 255
4.75291 34.1404 -0.0805585 0 255 255
4.74819 34.1354 -0.082054 0 255 255
4.74339 34.1303 -0.0835138 0 255 255
4.73855 34.1252 -0.0849189 0 255 255
4.73367 34.1201 -0.0862597 0 255 255
4.72875 34.115 -0.0875262 0 255 255
4.72378 34.1099 -0.0887082 0 255 255
4.71374 34.0996 -0.0907792 0 255 255
4.70862 34.0944 -0.0916663 0 255 255
4.70346 34.0892 -0.0924442 0 255 255
4.69824 34.084 -0.0931091 0 255 255
4.693 34.0788 -0.0936564 0 255 255
4.68767 34.0736 -0.0940939 0 255 255
4.6823 34.0683 -0.0944206 0 255 255
4.67689 34.063 -0.0946409 0 255 255
4.67144 34.0576 -0.0947602 0 255 255
4.66599 34.0522 -0.0947843 0 255 255
4.66049 34.0467 -0.0947186 0 255 255
4.65497 34.0412 -0.0945667 0 255 255
4.64944 34.0356 -0.0943319 0 255 255
4.6439 34.03 -0.0940165 0 255 255
4.63837 34.0243 -0.0936229 0 255 255
4.63284 34.0186 -0.0931547 0 255 255
4.62735 34.0129 -0.0926201 0 255 255
4.62181 34.0072 -0.092015 0 255 255
4.61632 34.0016 -0.0913582 0 255 255
4.61086 33.9961 -0.0906558 0 255 255
4.60547 33.9906 -0.0899225 0 255 255
4.6001 33.9852 -0.0891593 0 255 255
4.59479 33.9799 -0.0883793 0 255 255
4.58956 33.9747 -0.0875899 0 255 255
4.58443 33.9697 -0.0868009 0 255 255
4.57934 33.9648 -0.0860054 0 255 255
4.57432 33.9599 -0.0852087 0 255 255
4.56937 33.9552 -0.0844095 0 255 255
4.56447 33.9506 -0.0836045 0 255 255
4.55966 33.946 -0.0827945 0 255 255
4.55487 33.9415 -0.0819635 0 255 255
4.55013 33.937 -0.0811097 0 255 255
4.54544 33.9325 -0.0802255 0 255 255
4.54082 33.928 -0.0793032 0 255 255
4.53629 33.9236 -0.0783419 0 255 255
4.5318 33.9191 -0.0773239 0 255 255
4.52738 33.9146 -0.0762512 0 255 255
4.52307 33.9101 -0.0751293 0 255 255
4.51879 33.9056 -0.0739452 0 255 255
4.5146 33.9011 -0.0727163 0 255 255
4.51044 33.8966 -0.0714319 0 255 255
4.50633 33.8921 -0.0701055 0 255 255
4.50225 33.8876 -0.0687439 0 255 255
4.4982 33.8832 -0.0673544 0 255 255
4.49419 33.8788 -0.0659535 0 255 255
4.49017 33.8744 -0.0645318 0 255 255
4.48614 33.87 -0.0631059 0 255 255
4.4821 33.8657 -0.0616839 0 255 255
4.47805 33.8615 -0.0602734 0 255 255
4.474 33.8573 -0.0588906 0 255 255
4.46991 33.8531 -0.0575258 0 255 255
4.46579 33.8489 -0.0561953 0 255 255
4.46165 33.8448 -0.054907 0 255 255
4.45747 33.8407 -0.053669 0 255 255
4.45329 33.8366 -0.0524968 0 255 255
4.44905 33.8325 -0.0513845 0 255 255
4.44478 33.8285 -0.050348 0 255 255
4.44049 33.8245 -0.0493959 0 255 255
4.43617 33.8204 -0.0485357 0 255 255
4.43184 33.8164 -0.0477743 0 255 255
4.42751 33.8124 -0.0471174 0 255 255
4.4232 33.8083 -0.0465719 0 255 255
4.41887 33.8043 -0.0461338 0 255 255
4.41456 33.8002 -0.0458082 0 255 255
4.41027 33.7961 -0.0455954 0 255 255
4.40603 33.7921 -0.0454946 0 255 255
4.40177 33.7879 -0.045503 0 255 255
4.39756 33.7838 -0.0456181 0 255 255
4.39339 33.7796 -0.0458351 0 255 255
4.38925 33.7754 -0.0461486 0 255 255
4.38517 33.7713 -0.0465497 0 255 255
4.3811 33.7671 -0.0470371 0 255 255
4.37705 33.7628 -0.047602 0 255 255
4.37305 33.7586 -0.0482342 0 255 255
4.36903 33.7544 -0.0489403 0 255 255
4.36505 33.7501 -0.0497025 0 255 255
4.36109 33.7459 -0.0505199 0 255 255
4.35714 33.7416 -0.0513884 0 255 255
4.3532 33.7373 -0.0523044 0 255 255
4.34928 33.733 -0.0532591 0 255 255
4.34536 33.7287 -0.0542564 0 255 255
4.3414 33.7244 -0.0553021 0 255 255
4.33744 33.72 -0.0563906 0 255 255
4.33346 33.7156 -0.0575231 0 255 255
4.32946 33.7112 -0.0587016 0 255 255
4.32543 33.7068 -0.0599284 0 255 255
4.32138 33.7023 -0.0612057 0 255 255
4.31733 33.6978 -0.0625268 0 255 255
4.31322 33.6933 -0.0639086 0 255 255
4.30907 33.6887 -0.0653421 0 255 255
4.30489 33.6841 -0.0668248 0 255 255
4.30071 33.6794 -0.0683431 0 255 255
4.29647 33.6747 -0.06991 0 255 255
4.29219 33.6699 -0.0715091 0 255 255
4.28788 33.665 -0.0731315 0 255 255
4.28356 33.6601 -0.0747569 0 255 255
4.27915 33.655 -0.0764039 0 255 255
4.27474 33.6499 -0.0780294 0 255 255
4.27029 33.6447 -0.0796298 0 255 255
4.26585 33.6395 -0.0811813 0 255 255
4.26135 33.6341 -0.0826891 0 255 255
4.25682 33.6287 -0.0841293 0 255 255
4.25231 33.6233 -0.0854809 0 255 255
4.24776 33.6177 -0.0867488 0 255 255
4.2432 33.6121 -0.0879139 0 255 255
4.23864 33.6065 -0.0889681 0 255 255
4.23408 33.6008 -0.0899055 0 255 255
4.22955 33.5951 -0.0907185 0 255 255
4.22499 33.5893 -0.0914168 0 255 255
4.22044 33.5835 -0.0919975 0 255 255
4.21589 33.5776 -0.0924651 0 255 255
4.21133 33.5717 -0.0928263 0 255 255
4.20678 33.5658 -0.0930876 0 255 255
4.20218 33.5598 -0.0932611 0 255 255
4.19755 33.5537 -0.0933542 0 255 255
4.19293 33.5476 -0.0933761 0 255 255
4.18821 33.5414 -0.0933354 0 255 255
4.18349 33.5351 -0.0932397 0 255 255
4.17873 33.5289 -0.0930952 0 255 255
4.17397 33.5226 -0.0929076 0 255 255
4.16916 33.5162 -0.0926778 0 255 255
4.16437 33.5099 -0.0924109 0 255 255
4.15954 33.5036 -0.0921058 0 255 255
4.15473 33.4972 -0.091767 0 255 255
4.14995 33.4909 -0.0913982 0 255 255
4.14523 33.4846 -0.0910044 0 255 255
4.14057 33.4784 -0.0905909 0 255 255
4.13602 33.4723 -0.0901657 0 255 255
4.13154 33.4662 -0.0897272 0 255 255
4.12714 33.4603 -0.0892795 0 255 255
4.12284 33.4544 -0.0888219 0 255 255
4.11863 33.4487 -0.0883513 0 255 255
4.11453 33.4431 -0.0878658 0 255 255
4.11048 33.4376 -0.0873534 0 255 255
4.10649 33.4322 -0.0868107 0 255 255
4.10254 33.4269 -0.0862309 0 255 255
4.09867 33.4217 -0.0856158 0 255 255
4.09474 33.4166 -0.0849404 0 255 255
4.09083 33.4115 -0.0842156 0 255 255
4.08691 33.4065 -0.0834338 0 255 255
4.08297 33.4017 -0.0825922 0 255 255
4.07901 33.3969 -0.0816889 0 255 255
4.07502 33.3923 -0.0807227 0 255 255
4.07103 33.3877 -0.0797003 0 255 255
4.067 33.3833 -0.0786105 0 255 255
4.06295 33.3789 -0.0774625 0 255 255
4.05888 33.3746 -0.0762611 0 255 255
4.05482 33.3703 -0.0750124 0 255 255
4.05078 33.3661 -0.0737314 0 255 255
4.04672 33.3619 -0.0724097 0 255 255
4.04268 33.3577 -0.0710627 0 255 255
4.03867 33.3535 -0.0696973 0 255 255
4.0347 33.3492 -0.0683198 0 255 255
4.03079 33.345 -0.0669447 0 255 255
4.0269 33.3407 -0.0655606 0 255 255
4.02307 33.3363 -0.0641822 0 255 255
4.01929 33.332 -0.0628162 0 255 255
4.01558 33.3275 -0.0614702 0 255 255
4.01192 33.3231 -0.0601525 0 255 255
4.00832 33.3186 -0.0588721 0 255 255
4.0048 33.314 -0.0576457 0 255 255
4.00129 33.3094 -0.0564673 0 255 255
3.99781 33.3047 -0.0553536 0 255 255
3.99437 33.3 -0.0543195 0 255 255
3.99092 33.2953 -0.0533612 0 255 255
3.98747 33.2905 -0.0524938 0 255 255
3.984 33.2857 -0.0517259 0 255 255
3.98051 33.2809 -0.0510652 0 255 255
3.97699 33.2761 -0.0505185 0 255 255
3.97346 33.2713 -0.0500936 0 255 255
3.96987 33.2665 -0.049789 0 255 255
3.96623 33.2617 -0.0496103 0 255 255
3.96255 33.2569 -0.0495582 0 255 255
3.95885 33.2521 -0.0496309 0 255 255
3.95509 33.2474 -0.0498267 0 255 255
3.95128 33.2426 -0.0501418 0 255 255
3.94743 33.2379 -0.0505709 0 255 255
3.94357 33.2332 -0.0511043 0 255 255
3.93964 33.2285 -0.051742 0 255 255
3.93569 33.2238 -0.0524742 0 255 255
3.93173 33.2191 -0.0532888 0 255 255
3.92773 33.2145 -0.0541894 0 255 255
3.92371 33.2098 -0.0551651 0 255 255
3.91966 33.2052 -0.0562105 0 255 255
3.91563 33.2005 -0.0573135 0 255 255
3.91155 33.1959 -0.058483 0 255 255
3.90746 33.1913 -0.0597082 0 255 255
3.90334 33.1866 -0.0609847 0 255 255
3.89921 33.182 -0.0623083 0 255 255
3.89509 33.1774 -0.063666 0 255 255
3.89092 33.1727 -0.0650701 0 255 255
3.88674 33.1681 -0.0665075 0 255 255
3.88254 33.1634 -0.0679731 0 255 255
3.87832 33.1587 -0.0694619 0 255 255
3.87412 33.1539 -0.0709596 0 255 255
3.86986 33.1492 -0.0724804 0 255 255
3.86558 33.1444 -0.0740109 0 255 255
3.86128 33.1395 -0.075548 0 255 255
3.85694 33.1346 -0.0770891 0 255 255
3.8526 33.1297 -0.0786224 0 255 255
3.84819 33.1248 -0.0801646 0 255 255
3.84374 33.1198 -0.0817033 0 255 255
3.83924 33.1148 -0.0832347 0 255 255
3.83469 33.1097 -0.0847533 0 255 255
3.8301 33.1047 -0.0862522 0 255 255
3.82547 33.0996 -0.0877139 0 255 255
3.82077 33.0945 -0.0891467 0 255 255
3.81601 33.0893 -0.0905308 0 255 255
3.81119 33.0841 -0.0918547 0 255 255
3.80635 33.0789 -0.0931 0 255 255
3.80142 33.0737 -0.0942716 0 255 255
3.79643 33.0685 -0.0953519 0 255 255
3.79138 33.0632 -0.096333 0 255 255
3.78628 33.058 -0.0972083 0 255 255
3.78117 33.0527 -0.0979689 0 255 255
3.77597 33.0474 -0.0986213 0 255 255
3.77073 33.0421 -0.099159 0 255 255
3.76548 33.0368 -0.0995797 0 255 255
3.76014 33.0314 -0.0998907 0 255 255
3.75482 33.026 -0.100086 0 255 255
3.74948 33.0206 -0.100167 0 255 255
3.74413 33.0151 -0.100132 0 255 255
3.73878 33.0096 -0.0999796 0 255 255
3.73343 33.0041 -0.0997068 0 255 255
3.72809 32.9985 -0.0993119 0 255 255
3.72274 32.9929 -0.0987943 0 255 255
3.71744 32.9873 -0.0981601 0 255 255
3.7121 32.9818 -0.0974056 0 255 255
3.70677 32.9763 -0.0965415 0 255 255
3.70144 32.9709 -0.0955774 0 255 255
3.69617 32.9656 -0.0945323 0 255 255
3.69089 32.9604 -0.093407 0 255 255
3.68565 32.9553 -0.092223 0 255 255
3.68044 32.9503 -0.0909964 0 255 255
3.67529 32.9454 -0.0897434 0 255 255
3.67022 32.9406 -0.0884883 0 255 255
3.66518 32.936 -0.0872309 0 255 255
3.66018 32.9314 -0.0859929 0 255 255
3.65524 32.9269 -0.0847855 0 255 255
3.65037 32.9225 -0.0836235 0 255 255
3.6455 32.9181 -0.0824894 0 255 255
3.6407 32.9137 -0.0814037 0 255 255
3.63598 32.9094 -0.0803611 0 255 255
3.63129 32.9051 -0.0793407 0 255 255
3.62667 32.9007 -0.078339 0 255 255
3.62213 32.8963 -0.0773505 0 255 255
3.61763 32.8919 -0.0763517 0 255 255
3.6132 32.8875 -0.0753384 0 255 255
3.60883 32.883 -0.0743026 0 255 255
3.60451 32.8784 -0.0732386 0 255 255
3.60025 32.8739 -0.0721437 0 255 255
3.59606 32.8693 -0.0710247 0 255 255
3.59188 32.8647 -0.0698696 0 255 255
3.58773 32.8601 -0.0686885 0 255 255
3.58361 32.8556 -0.067486 0 255 255
3.57952 32.851 -0.0662672 0 255 255
3.57545 32.8465 -0.0650377 0 255 255
3.57141 32.842 -0.0638113 0 255 255
3.56736 32.8376 -0.0625793 0 255 255
3.56331 32.8332 -0.0613567 0 255 255
3.55926 32.8288 -0.0601517 0 255 255
3.55521 32.8245 -0.0589736 0 255 255
3.55119 32.8203 -0.0578392 0 255 255
3.54713 32.8161 -0.0567448 0 255 255
3.54306 32.8119 -0.0557081 0 255 255
3.53898 32.8077 -0.0547392 0 255 255
3.53492 32.8036 -0.053853 0 255 255
3.53083 32.7994 -0.0530474 0 255 255
3.52673 32.7953 -0.0523359 0 255 255
3.52263 32.7912 -0.0517253 0 255 255
3.51852 32.787 -0.0512212 0 255 255
3.51445 32.7829 -0.05083 0 255 255
3.51035 32.7787 -0.0505501 0 255 255
3.50626 32.7745 -0.0503859 0 255 255
3.50218 32.7703 -0.050338 0 255 255
3.49811 32.7661 -0.0504052 0 255 255
3.49406 32.7618 -0.0505847 0 255 255
3.49005 32.7575 -0.0508703 0 255 255
3.48603 32.7532 -0.0512596 0 255 255
3.48204 32.7488 -0.0517442 0 255 255
3.47808 32.7444 -0.0523161 0 255 255
3.47414 32.7399 -0.0529669 0 255 255
3.47025 32.7354 -0.053684 0 255 255
3.46636 32.7309 -0.0544688 0 255 255
3.4625 32.7264 -0.0553103 0 255 255
3.45865 32.7218 -0.0562028 0 255 255
3.45483 32.7172 -0.0571416 0 255 255
3.45102 32.7126 -0.0581228 0 255 255
3.44724 32.708 -0.0591368 0 255 255
3.44345 32.7033 -0.0601937 0 255 255
3.43966 32.6987 -0.0612854 0 255 255
3.43587 32.6939 -0.0624106 0 255 255
3.4321 32.6892 -0.0635613 0 255 255
3.42829 32.6845 -0.0647518 0 255 255
3.42447 32.6797 -0.0659752 0 255 255
3.42063 32.6749 -0.0672324 0 255 255
3.41677 32.67 -0.0685239 0 255 255
3.41291 32.6652 -0.0698422 0 255 255
3.409 32.6603 -0.0712034 0 255 255
3.40505 32.6553 -0.0725983 0 255 255
3.4011 32.6504 -0.0740157 0 255 255
3.39706 32.6454 -0.0754784 0 255 255
3.393 32.6403 -0.0769546 0 255 255
3.3889 32.6352 -0.078447 0 255 255
3.38479 32.6301 -0.0799388 0 255 255
3.3806 32.6249 -0.0814397 0 255 255
3.37636 32.6197 -0.0829307 0 255 255
3.37211 32.6144 -0.0843916 0 255 255
3.36779 32.609 -0.0858282 0 255 255
3.36342 32.6036 -0.0872182 0 255 255
3.35901 32.5981 -0.088548 0 255 255
3.35457 32.5926 -0.0898042 0 255 255
3.35013 32.587 -0.0909673 0 255 255
3.34563 32.5814 -0.0920406 0 255 255
3.34112 32.5756 -0.0930077 0 255 255
3.33659 32.5699 -0.0938619 0 255 255
3.33206 32.564 -0.0945992 0 255 255
3.32752 32.5581 -0.0952183 0 255 255
3.32301 32.5522 -0.0957175 0 255 255
3.31847 32.5462 -0.0961065 0 255 255
3.31394 32.5402 -0.0963872 0 255 255
3.30941 32.5341 -0.0965665 0 255 255
3.30492 32.5279 -0.0966519 0 255 255
3.30043 32.5217 -0.0966528 0 255 255
3.29592 32.5154 -0.0965758 0 255 255
3.29142 32.509 -0.0964267 0 255 255
3.28692 32.5025 -0.09621 0 255 255
3.28244 32.496 -0.0959282 0 255 255
3.27801 32.4895 -0.0955849 0 255 255
3.27358 32.4829 -0.0951765 0 255 255
3.26919 32.4764 -0.0947057 0 255 255
3.26484 32.4698 -0.0941743 0 255 255
3.26056 32.4632 -0.0935859 0 255 255
3.25635 32.4567 -0.0929461 0 255 255
3.25225 32.4503 -0.0922671 0 255 255
3.24822 32.444 -0.0915496 0 255 255
3.24427 32.4377 -0.090807 0 255 255
3.24044 32.4316 -0.0900522 0 255 255
3.23665 32.4255 -0.0892771 0 255 255
3.23298 32.4197 -0.0885041 0 255 255
3.22935 32.4139 -0.0877203 0 255 255
3.22576 32.4082 -0.0869301 0 255 255
3.22221 32.4026 -0.0861317 0 255 255
3.21867 32.3972 -0.0853223 0 255 255
3.21514 32.3919 -0.0845031 0 255 255
3.21157 32.3866 -0.0836591 0 255 255
3.20797 32.3814 -0.0827895 0 255 255
3.20432 32.3763 -0.0818882 0 255 255
3.20061 32.3713 -0.0809486 0 255 255
3.19688 32.3665 -0.0799709 0 255 255
3.19308 32.3616 -0.0789382 0 255 255
3.18922 32.3569 -0.077853 0 255 255
3.18533 32.3522 -0.076714 0 255 255
3.18144 32.3477 -0.0755294 0 255 255
3.1775 32.3431 -0.074287 0 255 255
3.17356 32.3386 -0.0729984 0 255 255
3.16963 32.3342 -0.0716691 0 255 255
3.16572 32.3297 -0.0703059 0 255 255
3.16187 32.3253 -0.0689246 0 255 255
3.15803 32.3208 -0.0675161 0 255 255
3.15423 32.3164 -0.0660969 0 255 255
3.15048 32.3119 -0.0646751 0 255 255
3.14678 32.3075 -0.063259 0 255 255
3.14314 32.303 -0.0618574 0 255 255
3.13958 32.2985 -0.0604874 0 255 255
3.13604 32.294 -0.0591409 0 255 255
3.13256 32.2894 -0.0578357 0 255 255
3.12911 32.2849 -0.0565806 0 255 255
3.12571 32.2803 -0.0553848 0 255 255
3.12235 32.2757 -0.0542642 0 255 255
3.11899 32.2711 -0.0532143 0 255 255
3.11564 32.2664 -0.0522517 0 255 255
3.11229 32.2617 -0.0513855 0 255 255
3.10892 32.2571 -0.0506245 0 255 255
3.10557 32.2524 -0.0499802 0 255 255
3.10216 32.2477 -0.0494516 0 255 255
3.09873 32.243 -0.0490487 0 255 255
3.09526 32.2383 -0.0487757 0 255 255
3.09178 32.2337 -0.0486355 0 255 255
3.08825 32.229 -0.0486271 0 255 255
3.08467 32.2243 -0.0487502 0 255 255
3.08105 32.2196 -0.0490018 0 255 255
3.07739 32.215 -0.0493767 0 255 255
3.07369 32.2103 -0.0498683 0 255 255
3.06995 32.2057 -0.0504687 0 255 255
3.06617 32.2011 -0.0511694 0 255 255
3.06237 32.1965 -0.0519563 0 255 255
3.05851 32.1919 -0.0528309 0 255 255
3.05462 32.1873 -0.0537808 0 255 255
3.0507 32.1828 -0.0547993 0 255 255
3.04675 32.1782 -0.0558804 0 255 255
3.0428 32.1737 -0.0570118 0 255 255
3.03879 32.1691 -0.0582029 0 255 255
3.03475 32.1646 -0.0594427 0 255 255
3.03072 32.16 -0.0607196 0 255 255
3.02663 32.1555 -0.0620458 0 255 255
3.02251 32.1509 -0.0634103 0 255 255
